970
3.43211 -19.5905 80.7851 5.22603 -9.83082 70.9138
3.00266 -19.7995 80.975 4.61903 -9.80528 71.2225
4.49523 -19.8856 80.5261 7.03109 -10.71 69.7492
4.12641 -20.0754 80.7567 6.38756 -10.8258 70.1838
4.3804 -15.027 78.9817 6.75878 -4.45279 70.3671
4.71351 -14.8282 78.7924 7.55726 -3.93291 69.8759
3.21633 -14.7554 79.1683 4.07702 -3.5183 71.6727
3.62662 -14.5636 79.0323 5.03416 -3.69083 71.2958
4.39067 -15.8981 79.2631 6.53863 -5.0226 70.4667
4.72622 -15.688 79.0671 7.29697 -5.05105 69.9885
3.22056 -15.6318 79.4574 4.55387 -4.4898 71.463
3.63456 -15.4288 79.3137 5.47562 -4.72981 71.0336
1.88898 -14.4753 79.1579 2.05554 -3.32786 72.2312
2.34485 -14.2806 79.0908 2.65675 -2.91504 72.1119
0.4773 -14.2943 79.0735 0.72423 -2.86032 72.4361
0.95453 -14.0487 79.0068 0.72423 -2.86032 72.4361
1.88881 -15.3602 79.4586 2.03189 -4.5599 72.2077
2.34647 -15.1531 79.3792 2.9065 -3.82455 72.0303
0.476797 -15.186 79.385 0.281887 -4.41057 72.4193
0.954097 -14.928 79.3041 1.11737 -3.90958 72.3661
1.89324 -32.2238 45.7045 1.79246 -29.1255 32.7853
1.55929 -32.8349 46.1993 1.4883 -30.2399 33.0266
1.85219 -30.7001 44.904 1.6296 -26.8418 32.3694
1.51695 -31.318 45.2822 1.27117 -27.8497 32.5339
3.07555 -31.6702 45.2499 2.66036 -28.7192 32.6883
2.6741 -32.3945 45.7376 2.67565 -29.8236 32.8855
3.03859 -30.1441 44.5251 2.39711 -26.0059 32.246
2.62993 -30.8816 44.8385 2.12226 -27.1812 32.4231
1.81102 -25.8943 43.9199 1.87019 -20.8812 32.0918
1.48374 -26.5091 44.0364 1.91044 -22.8671 32.0492
1.79196 -24.5352 43.7264 1.80621 -18.1857 32.2778
1.48154 -25.0839 43.8042 1.79478 -19.1806 32.203
2.94534 -25.4006 43.9532 2.54854 -19.3909 32.2159
2.5491 -26.1032 43.9725 2.31496 -20.7259 32.1054
2.89697 -24.0211 43.8218 2.95096 -17.6784 32.3955
2.51767 -24.6431 43.8228 2.70756 -18.1814 32.3363
2.74477 -38.904 54.931 3.9312 -44.4978 40.4394
3.1731 -38.6294 54.0916 4.34611 -43.1806 39.4202
2.67572 -39.1685 56.863 4.34209 -46.869 43.4136
3.09154 -39.0354 56.0857 4.7945 -45.4144 41.6828
1.6334 -39.0516 55.2787 1.95593 -44.765 40.5355
1.99855 -38.8417 54.4586 2.74284 -43.5597 39.5049
1.61427 -39.3715 57.2863 1.99361 -46.8466 42.9336
1.96381 -39.247 56.5284 2.59215 -46.2006 42.1157
1.99445 -35.2496 48.4397 2.31524 -34.4521 34.3361
1.64918 -35.8428 49.1348 1.98374 -35.5468 34.8311
1.94469 -33.7302 46.8831 1.8598 -31.6063 33.3821
1.60873 -34.3475 47.4931 1.59422 -32.5136 33.6434
3.1812 -34.7581 47.9933 3.26515 -33.8789 33.7367
2.78166 -35.4697 48.7609 3.27888 -35.2117 34.4043
3.1254 -33.1961 46.4115 2.93561 -31.1385 33.0924
2.72994 -33.9207 47.0622 2.9495 -32.2972 33.3751
2.58603 -28.7949 44.2735 2.14328 -24.2651 32.085
3.01713 -29.11 44.2914 2.16573 -24.3696 32.0905
1.48114 -29.1977 44.5695 1.3712 -24.5444 32.0869
1.82976 -29.6475 44.5726 1.47243 -24.9685 32.1202
2.55857 -27.1696 44.0928 2.22214 -22.2898 32.0446
2.98363 -27.5106 44.1146 2.22214 -22.2898 32.0446
1.47561 -27.5524 44.2448 1.70515 -24.0105 32.0677
1.81235 -28.0041 44.2485 1.59634 -23.5278 32.0444
2.0237 -37.9843 52.3248 2.30568 -40.9148 37.7736
1.65492 -38.3594 53.1143 1.70257 -41.8926 38.3665
2.0244 -36.7184 50.2874 2.10673 -37.379 35.7431
1.66453 -37.2371 51.0352 1.46492 -38.3917 36.2675
3.21986 -37.6944 51.9798 3.51355 -40.4214 37.4707
2.79566 -38.1919 52.8297 3.41795 -41.8359 38.364
3.21978 -36.3126 49.8956 3.64579 -37.2014 35.3647
2.80777 -36.9681 50.727 3.2008 -38.3777 36.2519
1.61113 -10.6586 44.0471 1.98002 0.193591 32.5298
1.99848 -11.316 44.0214 2.42074 -0.698694 32.621
0.804436 -11.3593 43.8073 0.923602 -0.993858 32.5603
1.12129 -11.9565 43.7817 1.49183 -1.50302 32.6089
1.39842 -8.05392 44.5407 1.55666 3.47535 32.3644
1.78338 -8.66667 44.4831 1.80621 2.66091 32.3812
0.499218 -8.91849 44.185 0.551608 1.85045 32.4313
0.909321 -9.44867 44.1303 1.03059 1.45658 32.442
1.73642 -23.4836 43.5825 1.74567 -16.4692 32.4124
1.44746 -23.9361 43.6263 1.44554 -17.2724 32.3254
1.66372 -22.6887 43.488 1.63671 -15.8679 32.4439
1.38161 -23.0771 43.5145 1.33085 -16.1763 32.3961
2.82302 -22.9589 43.7087 3.00096 -16.3903 32.5193
2.46021 -23.4607 43.6816 2.44222 -16.7058 32.4559
2.74143 -22.1762 43.6286 3.06331 -14.6904 32.6758
2.38133 -22.5934 43.5831 2.13584 -15.3755 32.5336
0.361705 -38.0586 52.5762 0.270015 -40.9387 37.7469
0.179779 -38.3954 53.3141 0.237949 -41.3821 38.0245
0.364794 -36.89 50.5702 0.379197 -37.6625 35.825
0.181926 -37.3046 51.2153 0.0745492 -38.3441 36.1977
1.04472 -38.0513 52.5049 1.23462 -41.1211 37.8708
0.791082 -38.3895 53.2592 0.832078 -41.456 38.0784
1.04924 -36.8667 50.4967 1.16108 -37.5634 35.8019
0.79821 -37.3058 51.1769 0.619248 -38.4649 36.2736
0.360861 -35.5455 48.8345 0.594158 -35.4183 34.7123
0.182868 -36.0096 49.3933 0.26887 -35.6431 34.8029
0.347539 -34.1042 47.4128 0.717142 -32.4309 33.5958
0.177993 -34.5994 47.8702 0.427091 -33.3706 33.8933
1.03389 -35.4816 48.7172 1.38656 -35.0803 34.6035
0.793815 -35.9868 49.3312 1.02167 -35.8835 34.941
1.00006 -34.0042 47.2341 0.952957 -32.105 33.5095
0.770482 -34.5451 47.7631 0.907615 -32.9182 33.7538
0.330803 -32.6146 46.3514 -0.162597 -30.1179 32.9617
0.169546 -33.1269 46.6954 0.105421 -30.5239 33.0606
0.317215 -31.0624 45.5899 0.302216 -27.605 32.4574
0.161258 -31.6018 45.8534 0.0553141 -28.4215 32.6017
0.961651 -32.499 46.1149 1.38158 -29.8079 32.9226
0.738377 -33.0511 46.5397 0.31952 -30.6532 33.0978
0.931381 -30.9533 45.3252 0.832477 -27.3242 32.4218
0.710035 -31.5231 45.663 0.676941 -28.1421 32.5657
0.311545 -29.4178 45.0072 0.832055 -24.785 32.0795
0.155958 -29.9881 45.225 0.514408 -25.2313 32.1118
0.315032 -27.7605 44.5304 0.956615 -24.4339 32.0619
0.155587 -28.3161 44.711 0.956615 -24.4339 32.0619
0.917641 -29.3283 44.768 0.832055 -24.785 32.0795
0.694148 -29.9223 45.0343 0.684083 -25.2204 32.1165
0.921238 -27.6859 44.358 1.3712 -24.5444 32.0869
0.694482 -28.2682 44.5603 0.956615 -24.4339 32.0619
0.324442 -26.2373 44.1349 1.47243 -24.9685 32.1202
0.159445 -26.7292 44.2806 1.57808 -26.029 32.2493
0.330006 -24.9687 43.8517 0.64545 -19.5047 32.1221
0.164997 -25.3675 43.9492 0.650863 -20.4234 32.0668
0.934923 -26.1541 44.0287 1.91044 -22.8671 32.0492
0.706785 -26.6863 44.1824 1.9373 -25.5961 32.1997
0.936926 -24.8508 43.7758 1.16647 -18.9701 32.1793
0.71759 -25.3064 43.8837 0.650863 -20.4234 32.0668
0.319479 -24.0167 43.7205 0.28848 -17.6997 32.2289
0.16501 -24.3136 43.7676 0.325724 -17.9173 32.2153
0.296379 -23.2839 43.6792 0.128701 -16.1867 32.3253
0.154469 -23.535 43.7175 0.200844 -16.8744 32.2837
0.903929 -23.8502 43.625 0.623277 -17.3593 32.2698
0.703812 -24.2163 43.6967 0.635889 -17.9859 32.2244
0.850233 -23.079 43.5438 0.616358 -15.9531 32.3647
0.661506 -23.3995 43.6105 0.634758 -16.7661 32.3123
0.320164 -12.6885 43.6142 0.384319 -2.70222 32.6238
0.394332 -11.835 43.6945 0.589976 -1.8418 32.597
0.361145 -39.1883 55.6105 0.686602 -44.8642 40.7501
0.179779 -38.971 54.8434 0.550118 -44.3038 40.2437
1.03772 -39.1282 55.4672 1.10406 -44.9053 40.745
0.790522 -38.9436 54.7642 1.02839 -43.9022 39.8403
0.367442 -39.667 57.7192 0.316547 -47.6127 43.937
0.181366 -39.5638 57.0853 -0.330422 -46.8501 42.9614
1.04057 -39.524 57.5169 1.51486 -47.3909 43.6443
0.794422 -39.4761 56.9475 0.698012 -46.5405 42.5779
4.31598 -38.3029 54.2513 5.56889 -43.652 40.2232
3.97084 -38.2845 53.7683 4.67775 -43.6632 39.8822
5.31747 -37.6798 53.671 6.14334 -43.0506 39.962
5.04619 -37.6108 53.185 4.40387 -43.7304 39.881
4.19481 -38.7369 56.1437 6.4551 -44.9596 42.1258
3.86501 -38.7792 55.7294 5.96158 -44.7867 41.5944
5.18419 -38.355 55.5973 7.49822 -43.7968 41.7647
4.91707 -38.3296 55.1516 7.2125 -43.3677 41.0235
4.04348 -38.9573 58.9768 6.75394 -47.3423 46.0457
3.67157 -38.997 59.5865 6.53082 -47.9547 46.9358
4.11451 -38.9094 57.3276 6.46348 -46.1909 43.7878
3.71872 -39.0063 58.0289 6.2437 -47.1404 45.0952
5.05437 -38.8139 58.7151 7.86929 -46.351 45.8343
4.73015 -38.8617 59.3894 7.50594 -47.1712 46.7687
5.11092 -38.6656 56.863 8.17897 -44.4247 43.3878
4.7635 -38.8126 57.6012 7.46898 -45.9712 44.6406
1.92462 -39.3893 59.6131 3.75687 -49.2132 47.3083
1.61651 -39.4753 60.0911 4.07118 -49.4802 47.9913
1.93505 -39.3784 58.2699 3.04826 -48.4298 45.5409
1.60657 -39.4814 58.8578 2.93373 -49.1407 46.8145
2.95567 -39.1314 59.2876 5.77318 -48.2493 46.7082
2.59162 -39.197 59.8424 5.52476 -48.8211 47.6657
3.00829 -39.1353 57.8214 4.83391 -47.4592 44.5664
2.61715 -39.2208 58.4703 5.03369 -47.966 45.5623
5.89423 -37.9298 66.6245 11.3108 -45.0566 52.886
5.69456 -38.1436 66.0859 10.8023 -45.7115 52.4936
0.823892 -39.7862 59.8453 1.64781 -49.8968 47.8474
1.07121 -39.6765 60.1558 2.96289 -49.7175 47.9415
0.192336 -39.9705 59.9021 0.458782 -49.7593 47.4071
0.392595 -39.9178 60.2022 1.39562 -49.8045 47.6254
0.805923 -39.7266 58.668 1.03172 -49.1551 46.3721
1.05114 -39.6771 59.0254 1.39562 -49.8045 47.6254
0.186077 -39.8766 58.8084 -0.460278 -49.0717 46.1855
0.378413 -39.8884 59.1878 0.270511 -49.5736 47.0585
4.65179 -19.4088 43.9791 4.62198 -11.2665 33.1552
5.09565 -19.4054 44.1871 4.62198 -11.2665 33.1552
3.38983 -19.9729 43.5721 3.02954 -12.0912 32.846
3.82474 -19.9996 43.7233 3.46041 -11.9796 32.9046
4.58967 -18.7443 43.8919 4.68136 -10.5147 33.214
5.03453 -18.7583 44.0902 4.93675 -10.7356 33.2871
3.3406 -19.3198 43.5 3.07574 -11.4424 32.8759
3.77203 -19.3681 43.6297 3.38321 -11.3372 32.9222
2.29332 -21.7009 43.4861 1.96168 -14.1855 32.5974
2.69469 -21.7386 43.5801 2.65835 -14.1344 32.6775
1.30779 -22.1601 43.4207 1.18924 -14.9579 32.4669
1.62245 -22.2337 43.4395 1.38112 -15.1084 32.4741
2.25628 -21.0806 43.4194 2.16212 -13.7126 32.6488
2.64616 -21.1183 43.505 2.4581 -13.5328 32.6945
1.28656 -21.5114 43.3659 0.965678 -13.8005 32.519
1.58878 -21.5895 43.3817 1.53654 -14.2206 32.5502
2.22814 -20.4647 43.3584 1.95182 -12.673 32.6862
2.61096 -20.5115 43.4314 1.95182 -12.673 32.6862
1.27504 -20.8631 43.3153 1.19487 -13.2094 32.5686
1.57124 -20.9557 43.3305 1.19487 -13.2094 32.5686
2.1973 -19.8064 43.3127 2.29841 -12.1728 32.7566
2.57559 -19.8778 43.3694 2.41051 -12.2397 32.7667
1.26046 -20.1825 43.2746 1.38687 -12.7723 32.613
1.55366 -20.3006 43.2865 1.38687 -12.7723 32.613
0.61093 -22.4819 43.5319 0.77711 -15.1583 32.4279
0.817684 -22.617 43.4985 0.937438 -15.8037 32.3926
0.136443 -22.6297 43.6588 0.185351 -15.3424 32.3834
0.278353 -22.8282 43.6459 0.246415 -15.5954 32.3699
0.602168 -21.8008 43.4581 0.416682 -14.7683 32.4346
0.79882 -21.9469 43.4383 0.720658 -15.0147 32.4346
0.135925 -21.9253 43.5562 -0.0740798 -14.744 32.4173
0.272368 -22.1372 43.5646 0.416682 -14.7683 32.4346
0.599916 -21.1095 43.3744 0.494664 -13.6802 32.4983
0.793707 -21.2727 43.3704 0.626542 -14.052 32.4861
0.136009 -21.2036 43.4333 0.0753231 -13.6677 32.4757
0.271934 -21.4257 43.4537 0.218315 -14.1963 32.4559
0.594822 -20.3949 43.3029 0.970902 -13.0361 32.5609
0.78806 -20.5818 43.3074 0.970902 -13.0361 32.5609
0.134744 -20.4643 43.3288 0.116613 -12.6177 32.5332
0.270753 -20.7006 43.3495 0.368255 -13.328 32.5098
14.1423 -9.01924 63.8156 13.8993 0.505978 50.9321
14.2355 -9.54404 63.1375 14.0917 -2.13747 50.3119
14.0951 -7.74996 63.8558 13.6616 3.29699 51.074
14.1947 -8.27525 63.1837 13.5329 2.3877 50.0469
13.8058 -8.67818 65.6665 14.0164 2.36285 52.8095
13.9483 -9.1937 65.0627 13.9942 1.46553 52.0957
13.7497 -7.47665 65.6876 13.8966 3.95115 52.8377
13.9002 -7.97842 65.0915 13.8747 3.36524 52.4277
14.2875 -9.44307 61.1021 13.3037 0.569624 48.1239
14.31 -9.76629 61.7771 13.6215 -0.254398 49.073
14.0921 -9.71693 58.9568 12.7943 0.935059 46.3199
14.2072 -10.0567 59.6622 13.0121 0.5459 46.9549
14.2346 -8.10505 61.1527 13.192 2.53071 48.5031
14.2654 -8.47684 61.8306 13.3924 1.58062 48.972
14.0128 -8.33539 59.0088 12.639 2.71818 46.3366
14.1415 -8.7315 59.7188 12.8356 2.05576 46.868
14.1804 -6.69614 61.1977 13.0835 4.68992 48.41
14.2117 -7.11079 61.8789 13.2043 3.95287 48.947
13.9447 -6.85346 59.0456 12.6882 4.7948 46.6964
14.0745 -7.29429 59.7614 12.7855 3.87574 47.0935
14.1016 -5.24371 61.2408 13.156 6.46016 48.5955
14.1458 -5.70815 61.9246 13.2624 6.01569 49.33
13.8647 -5.29341 59.0848 12.7373 6.48715 46.4509
14.0064 -5.79087 59.7981 12.7139 5.83986 46.6023
13.6806 -9.97333 56.7294 12.2776 0.602856 44.4479
13.8745 -10.3202 57.4547 12.5411 0.229688 45.1657
13.134 -10.2208 54.6002 11.8984 -0.01319 42.9455
13.3783 -10.5691 55.2567 12.1275 -0.56208 43.496
13.558 -8.56797 56.7969 12.085 2.35084 44.3501
13.7694 -8.97394 57.5214 12.4024 2.16271 45.3628
12.9658 -8.81331 54.6967 11.6726 1.55465 42.7092
13.2249 -9.21908 55.3483 11.9082 1.43774 43.5424
13.4589 -7.041 56.8443 12.1894 4.23831 44.7511
13.6716 -7.48859 57.5684 12.3045 4.2135 45.2137
12.8315 -7.27377 54.7725 11.7211 4.16485 42.9563
13.0862 -7.71461 55.4212 11.7459 3.37737 43.2154
13.3696 -5.39803 56.9018 12.4021 6.70822 44.6249
13.5904 -5.9084 57.6082 12.465 5.7851 45.477
12.7295 -5.57955 54.8671 12.0799 6.70593 42.9757
12.9835 -6.08979 55.4892 12.0127 5.68221 43.5039
12.5332 -10.4686 52.8018 11.6719 -0.666429 41.9124
12.7992 -10.8111 53.3155 11.8246 -1.13468 42.2661
11.8833 -10.7553 51.3081 11.0155 -0.639435 39.7781
12.1734 -11.0734 51.7308 11.254 -1.07733 40.4414
12.3381 -9.07719 52.9253 11.4295 1.70885 41.7737
12.6088 -9.4725 53.4349 11.5217 0.849766 41.9016
11.6886 -9.38711 51.4481 10.9584 1.4893 39.9263
11.9723 -9.75518 51.8695 11.1325 0.913457 40.4685
12.1847 -7.55561 53.0284 11.3247 3.73783 41.2876
12.4404 -7.97717 53.5384 11.4009 3.12913 41.7818
11.536 -7.89642 51.5691 10.9337 3.51083 39.6454
11.7986 -8.28757 51.9939 11.0921 2.74636 40.4406
12.0754 -5.84242 53.1562 11.6249 6.02088 41.1794
12.3218 -6.34197 53.6403 11.6165 5.26438 41.8526
11.423 -6.17857 51.7206 11.3275 5.51989 40.0387
11.6757 -6.66492 52.1194 11.2212 4.65084 40.2947
11.1376 -11.1403 49.9453 10.4853 -0.593517 38.3881
11.4612 -11.4136 50.3422 10.7477 -0.757646 39.0334
10.2492 -11.6912 48.6692 9.88253 -1.24256 37.1353
10.6153 -11.8966 49.0343 10.2513 -1.46521 37.8004
10.9654 -9.78883 50.0907 10.4999 0.930786 38.4867
11.276 -10.1139 50.4898 10.7555 0.517103 39.1703
10.1054 -10.3513 48.8108 9.86269 0.282695 37.102
10.4609 -10.6098 49.1811 10.1761 0.122874 37.7028
10.8249 -8.31669 50.2209 10.5498 2.58638 38.5579
11.1154 -8.6709 50.6242 10.6752 2.24421 38.9642
9.97615 -8.87613 48.9441 10.0002 2.03156 37.3074
10.3194 -9.17616 49.3171 10.1659 1.62114 37.6986
10.7055 -6.58128 50.3959 10.6741 4.84919 38.0885
10.9929 -7.05586 50.767 10.8512 4.24659 38.9595
9.84397 -7.09287 49.1442 10 4.21401 36.8836
10.1943 -7.54208 49.4768 10.2119 3.47228 37.5388
9.19089 -12.4594 47.5237 9.14933 -2.18704 36.109
9.60656 -12.5801 47.8421 9.33171 -2.52676 36.3526
8.00996 -13.4009 46.486 7.73208 -3.43307 34.7786
8.45261 -13.46 46.7794 8.26401 -3.29689 35.2284
9.06415 -11.1389 47.6557 8.97465 -0.785381 35.8785
9.47801 -11.312 47.9806 9.4662 -0.655733 36.4969
7.88682 -12.1175 46.607 8.03292 -1.58264 34.9435
8.33439 -12.2272 46.9054 8.35426 -1.90251 35.2361
8.93588 -9.64312 47.7882 9.12517 1.21707 36.0391
9.34832 -9.87824 48.1129 9.46395 0.686301 36.4918
7.74927 -10.5997 46.7405 8.24446 -0.155516 35.081
8.20415 -10.7941 47.0327 8.24969 -0.265152 35.0889
8.78448 -7.7769 48.009 9.10871 3.70571 35.7794
9.21342 -8.1918 48.2869 9.18115 2.72254 36.0093
7.57415 -8.64136 46.9784 8.20562 2.4753 34.9716
8.05207 -9.03386 47.2182 8.28098 1.69964 35.0805
6.51597 -11.6635 45.7575 6.84051 -1.38185 34.025
6.98044 -11.8446 46.0288 7.5213 -1.2742 34.4886
5.29054 -12.7084 44.8841 5.54208 -2.69558 33.4354
5.75286 -12.9135 45.1042 5.95411 -3.02638 33.6477
6.3164 -9.64612 46.0143 6.79323 1.26188 33.8445
6.80688 -10.0262 46.2295 7.4114 0.51032 34.3269
5.07953 -10.6824 45.1549 5.21399 -0.228682 33.1281
5.56317 -11.0785 45.3223 5.88363 -0.535655 33.4346
4.09475 -13.6081 44.2109 4.12205 -4.1185 33.1102
4.54264 -13.8664 44.3519 4.62214 -4.2634 33.2229
2.9581 -14.355 43.7672 2.92707 -5.28356 32.9342
3.37352 -14.6445 43.8349 3.12514 -5.50339 32.9704
3.9006 -11.6176 44.4779 4.19824 -1.23632 32.9185
4.35901 -12.0541 44.5758 4.81097 -1.8302 33.1291
2.79982 -12.4208 44.0087 3.04754 -2.23413 32.8005
3.22092 -12.8822 44.0453 3.60458 -2.99413 32.9345
1.92312 -14.9991 43.5297 2.0545 -6.20555 32.8323
2.28861 -15.3001 43.5393 2.42594 -6.90062 32.885
1.07204 -15.4945 43.4354 0.788267 -6.88022 32.7052
1.3556 -15.8387 43.4133 1.43511 -7.56729 32.7612
1.7979 -13.1156 43.7284 1.5411 -3.32131 32.703
2.1715 -13.5926 43.721 2.15531 -3.94407 32.7915
0.97669 -13.6762 43.5868 0.83686 -4.01622 32.6848
1.26595 -14.1779 43.5592 1.20607 -4.322 32.7106
0.484514 -15.7404 43.4077 0.339206 -6.95653 32.6805
0.664185 -16.1716 43.3768 0.813457 -7.55407 32.7053
0.104527 -15.803 43.4026 0.193812 -6.93042 32.6737
0.219012 -16.2707 43.3695 0.142939 -7.57657 32.6672
0.424691 -13.9797 43.5273 0.443 -4.32684 32.6737
0.60311 -14.5616 43.494 0.702668 -4.78094 32.6891
0.0870827 -14.0901 43.5114 0.262509 -4.20554 32.666
0.19161 -14.6909 43.4741 -0.203463 -4.95287 32.6713
14.2764 -13.5796 60.7695 13.8793 -4.54208 47.946
14.2638 -13.771 61.4521 14.0485 -4.78146 48.5947
14.1587 -13.7926 58.5848 13.4704 -4.41656 46.3744
14.2132 -14.0084 59.284 13.6162 -4.53764 46.8818
14.3032 -12.6978 60.8676 13.8792 -3.80255 48.3301
14.2935 -12.9147 61.5438 14.058 -4.3495 48.8651
14.17 -12.9155 58.6966 13.3243 -3.3436 46.3239
14.2316 -13.147 59.3941 13.4774 -3.79902 46.6734
14.3223 -11.7334 60.9593 13.7219 -2.56827 48.237
14.3185 -11.9749 61.6318 14.1525 -5.10551 48.9221
14.1729 -11.9801 58.799 13.1725 -1.76622 46.4853
14.2454 -12.2249 59.4976 13.4049 -2.37798 47.0512
14.3206 -10.6586 61.0387 13.5256 -0.970354 48.2668
14.3278 -10.9328 61.711 14.0801 -4.06738 49.1158
14.1517 -10.9358 58.8868 12.9808 -0.419333 46.4065
14.2426 -11.2144 59.5883 13.1758 -1.14157 46.7903
13.8847 -13.9663 56.3425 12.8899 -4.77256 44.3113
13.9938 -14.1922 57.0577 13.0537 -4.76691 44.831
13.5112 -14.1242 54.2026 12.3933 -5.49887 42.608
13.6589 -14.3513 54.8598 12.6187 -5.36469 43.306
13.8668 -13.103 56.4527 12.8731 -3.68098 44.6543
13.9881 -13.3353 57.1721 12.997 -3.69002 45.0479
13.4517 -13.2798 54.3034 12.6615 -6.69508 43.0269
13.6158 -13.507 54.9659 12.5876 -4.88532 43.3672
13.8392 -12.2002 56.5542 12.7734 -2.67462 44.7263
13.9762 -12.4385 57.2786 12.8911 -2.64989 45.1203
13.3828 -12.4071 54.3996 12.4703 -5.53748 42.8239
13.5657 -12.6375 55.0658 12.4342 -3.81174 43.2298
13.7831 -11.1874 56.6464 12.6312 -1.25236 44.8485
13.9451 -11.4632 57.3731 12.736 -1.30576 45.1776
13.2834 -11.4226 54.497 12.1916 -2.39191 42.9978
13.4943 -11.694 55.1613 12.337 -2.19932 43.5245
13.0779 -14.2861 52.3787 12.0047 -5.6234 41.5138
13.2577 -14.5056 52.91 12.1231 -5.77899 41.7907
12.5176 -14.4939 50.8432 11.2172 -5.21007 39.6232
12.7652 -14.6875 51.2935 11.5129 -5.41234 40.304
12.9704 -13.4607 52.4762 12.1086 -7.21864 41.4014
13.1674 -13.6774 53.0089 12.3243 -7.35901 41.92
12.3773 -13.6868 50.9479 11.219 -4.19769 39.7552
12.6332 -13.8757 51.3956 11.5356 -4.53589 40.5084
12.8565 -12.6132 52.5729 12.0858 -6.76706 41.4482
13.0717 -12.8327 53.1045 12.635 -9.86857 41.969
12.235 -12.8606 51.0534 11.1357 -3.20103 39.6961
12.4992 -13.0522 51.4967 11.4726 -3.97465 40.4306
12.7167 -11.653 52.6787 11.9434 -4.60062 41.5917
12.9567 -11.9162 53.2037 12.2323 -5.46224 42.1726
12.0751 -11.9213 51.1704 11.2192 -1.99193 40.1215
12.3524 -12.1583 51.6046 11.3727 -2.80321 40.4065
11.7224 -14.8092 49.4312 10.8038 -5.3838 38.6836
12.0628 -14.9541 49.8562 10.8038 -5.3838 38.6836
10.6984 -15.3098 48.1183 9.70626 -5.98879 36.8899
11.1003 -15.377 48.5 10.2241 -5.76291 37.6283
11.5887 -14.021 49.5503 10.5966 -4.28212 38.3907
11.9213 -14.16 49.9704 10.9033 -4.41384 38.9999
10.6 -14.5404 48.2519 9.77827 -4.64378 37.0093
10.9878 -14.6029 48.6294 10.1219 -4.67224 37.4727
11.4547 -13.2139 49.6703 10.464 -3.03802 38.2103
11.7804 -13.3561 50.0845 10.8017 -2.8895 38.9226
10.4993 -13.7458 48.3853 9.9364 -3.72742 37.2312
10.8751 -13.8163 48.7586 10.1753 -4.13597 37.5925
11.3082 -12.2919 49.7996 10.7011 -2.06501 38.7502
11.632 -12.4814 50.205 10.8292 -2.25132 39.0582
10.3857 -12.832 48.5233 9.87662 -2.79482 37.1185
10.7551 -12.9539 48.8916 10.248 -2.81099 37.7869
9.52764 -16.0527 46.9764 8.71285 -6.83213 35.7674
9.95584 -16.0265 47.2896 9.31671 -6.72369 36.3687
8.30387 -16.9623 46.022 7.73803 -7.72518 34.941
8.73077 -16.8863 46.2813 8.16465 -8.24736 35.2514
9.46326 -15.2997 47.1135 8.72878 -5.73993 35.7711
9.88237 -15.2734 47.4275 9.04479 -5.52652 36.097
8.25572 -16.226 46.1302 8.00212 -7.11333 35.1474
8.68163 -16.1549 46.4029 8.23393 -6.95612 35.3265
9.39173 -14.5042 47.2494 9.02407 -4.79861 36.0646
9.80513 -14.4962 47.5645 9.30971 -4.58332 36.3589
8.19514 -15.4228 46.2438 7.54164 -5.88969 34.755
8.62395 -15.3788 46.5256 8.21224 -5.82998 35.2998
9.30347 -13.5855 47.3857 8.97174 -3.94793 35.9785
9.71657 -13.6319 47.7018 9.40267 -3.85915 36.4718
8.11463 -14.497 46.3634 7.93164 -4.76697 35.0234
8.54982 -14.5018 46.6514 8.23983 -4.65204 35.2776
13.9384 -12.925 64.9022 14.5849 -3.9856 52.0636
13.8099 -13.0459 65.5204 14.6007 -3.58507 52.4544
14.1985 -13.2956 62.8881 14.3298 -4.44912 50.2037
14.1143 -13.4507 63.5588 14.4686 -4.53341 50.9359
13.9665 -12.0618 64.9487 14.4757 -2.8827 52.1097
13.8428 -12.2237 65.5557 14.4574 -2.18962 52.5084
14.2288 -12.4184 62.9628 14.5426 -6.12714 50.4782
14.1464 -12.6079 63.6245 14.6186 -5.89722 51.0841
13.9772 -11.0772 64.9944 14.3642 -1.60758 52.3151
13.8576 -11.2872 65.5926 14.3021 -0.980889 52.3831
14.2486 -11.4356 63.034 14.7714 -8.53956 50.7384
14.1686 -11.6622 63.6888 14.535 -5.42028 50.8202
13.9661 -9.97988 65.035 14.1362 0.0502943 52.0239
13.8501 -10.2289 65.6267 14.1459 0.438894 52.368
14.2487 -10.3402 63.0975 14.2996 -3.89626 50.3726
14.1732 -10.6016 63.748 14.4194 -3.769 51.1221
6.26707 -18.0001 44.7328 6.1429 -9.82689 33.8464
5.84174 -18.0339 44.489 5.42454 -9.76406 33.4974
7.4675 -17.1079 45.5143 7.2151 -8.34327 34.5449
7.0508 -17.1739 45.2531 6.34249 -8.44196 33.9997
6.3223 -18.6745 44.7694 6.13924 -10.5057 33.8037
5.90372 -18.7211 44.5419 6.0037 -10.9108 33.7127
7.51282 -17.8131 45.4563 6.87047 -9.06069 34.3029
7.10236 -17.8876 45.2214 6.57112 -9.13529 34.1152
6.11456 -16.3706 44.7872 5.68773 -7.09701 33.6744
5.67424 -16.3465 44.5437 5.53059 -7.47853 33.603
7.3339 -15.453 45.6815 6.87445 -5.99439 34.318
6.89822 -15.4522 45.4004 6.87445 -5.99439 34.318
6.19941 -17.2426 44.735 5.97813 -8.56943 33.811
5.76551 -17.2431 44.4905 5.64898 -8.63588 33.6381
7.41021 -16.336 45.5872 7.32348 -7.25414 34.6295
6.98415 -16.3709 45.3129 6.76235 -7.36861 34.2733
0.80755 -21.4196 82.0826 1.39379 -10.9043 72.228
0.398123 -21.531 82.1754 0.782442 -11.7085 72.3199
2.00378 -21.5272 82.0412 2.74895 -10.9912 71.9115
1.594 -21.6138 82.1564 2.45619 -10.8219 72.0074
0.832077 -20.8931 81.7516 1.34519 -10.672 72.2331
0.409427 -21.0781 81.8707 0.905451 -11.1062 72.2959
2.06377 -20.9932 81.7115 3.12186 -10.4642 71.7992
1.63998 -21.1479 81.8483 2.45619 -10.8219 72.0074
3.13998 -21.7243 81.8981 4.69705 -11.4994 71.1172
2.74577 -21.7886 82.0591 4.06448 -11.6151 71.4163
4.14258 -21.9952 81.6426 6.56707 -12.6472 69.9498
3.79647 -22.0439 81.8458 5.63266 -12.081 70.5863
3.22939 -21.1843 81.5642 4.99263 -11.3029 70.9852
2.82178 -21.308 81.7435 4.02297 -10.9801 71.4503
4.2501 -21.449 81.297 6.6417 -12.1501 69.9224
3.8937 -21.5518 81.5157 5.77244 -11.9576 70.5097
7.26743 -24.1143 79.2625 10.5023 -16.2757 65.8951
7.01977 -24.0716 79.6263 10.2327 -16.2036 66.2781
7.91056 -24.7912 78.5287 11.0065 -17.5469 65.0088
7.65102 -24.7113 78.9237 10.7309 -17.6247 65.4595
7.39499 -23.5244 78.8344 10.6809 -15.9209 65.6865
7.13012 -23.5405 79.2112 10.3223 -15.8836 66.1806
8.07765 -24.1964 78.0771 11.3129 -16.9388 64.5324
7.79184 -24.1781 78.4908 10.9703 -16.9454 65.1161
8.51013 -25.5671 77.7515 11.3618 -19.2256 64.2981
8.26095 -25.4518 78.1601 11.2294 -19.0374 64.5534
9.02388 -26.4007 76.9758 11.7586 -20.9904 63.5093
8.79103 -26.2655 77.3859 11.7555 -20.1992 63.507
8.72965 -24.9769 77.2684 11.5346 -18.3773 64.0002
8.44554 -24.9248 77.7064 11.4286 -17.8528 64.2412
9.29983 -25.8244 76.4501 11.9199 -20.2986 63.16
9.02708 -25.7544 76.9034 11.7555 -20.1992 63.507
9.43966 -27.241 76.2311 12.0569 -23.0212 62.9533
9.22524 -27.1012 76.638 12.0565 -22.1607 62.8963
9.76626 -28.0895 75.5096 12.4512 -24.8239 62.2645
9.56592 -27.9344 75.9249 12.3588 -24.2744 62.3904
9.76561 -26.686 75.6535 12.2624 -22.5445 62.427
9.51105 -26.6106 76.1156 12.0565 -22.1607 62.8963
10.1346 -27.5698 74.8777 12.5946 -24.0344 61.7345
9.89456 -27.4715 75.3537 12.382 -23.8721 62.262
10.0232 -28.9896 74.7734 12.9282 -26.0264 61.3789
9.83101 -28.7981 75.2137 12.739 -25.4417 61.6957
10.2237 -29.9949 73.9481 13.1471 -26.5198 61.0015
10.0394 -29.7446 74.4408 13.1471 -26.5198 61.0015
10.43 -28.525 74.0947 12.8205 -24.5267 61.1869
10.1985 -28.3793 74.5933 12.7097 -24.9116 61.5937
10.6581 -29.5955 73.2408 13.0963 -25.3558 60.5923
10.4391 -29.3855 73.7821 13.0963 -25.3558 60.5923
10.3651 -31.1316 72.9639 13.7319 -28.3507 60.2555
10.1964 -30.8184 73.5222 13.4165 -27.6184 60.8487
10.4065 -32.3092 71.8635 14.1044 -29.7585 59.6636
10.2724 -31.9851 72.4437 14.082 -29.8049 59.7949
10.808 -30.7904 72.2574 13.7443 -27.7041 59.6933
10.6114 -30.518 72.8486 13.4773 -26.8536 60.0696
10.8639 -32.0093 71.1986 14.1916 -29.3819 59.0442
10.6958 -31.7281 71.7926 14.084 -29.2058 59.4506
10.2991 -33.3882 70.7464 14.2229 -32.84 58.6168
10.2047 -33.1057 71.2985 14.2138 -31.9509 59.1854
10.0338 -34.3416 69.6259 12.9537 -40.8824 58.7876
9.96216 -34.0956 70.1513 13.4379 -37.3091 58.8359
10.8141 -33.1111 70.1668 14.4541 -31.9975 58.0049
10.669 -32.8729 70.7174 14.338 -31.4397 58.792
10.6444 -34.0765 69.1447 13.7023 -36.5431 57.7919
10.5158 -33.8724 69.6703 13.6789 -36.4563 58.0176
8.38285 -35.5264 69.1585 13.6172 -37.8483 56.8066
8.4488 -35.2865 69.7269 13.6344 -37.4679 57.2579
7.65296 -36.4177 67.8167 13.2623 -40.2414 55.1015
7.68513 -36.1894 68.4202 13.3496 -39.7945 55.8718
8.96916 -35.3819 68.7875 13.6172 -37.8483 56.8066
8.96151 -35.1449 69.3206 13.6344 -37.4679 57.2579
8.39993 -36.2106 67.4635 13.3496 -39.7945 55.8718
8.35834 -35.9918 68.022 13.462 -39.1548 55.9845
9.63058 -35.2178 68.4444 13.7101 -37.4015 56.5932
9.56596 -34.9902 68.9709 13.3952 -38.8125 57.7477
9.15668 -36.0367 67.1495 13.5185 -38.8932 55.8831
9.07536 -35.8283 67.7025 13.6159 -38.1826 56.2984
10.3415 -34.9628 68.0366 13.9284 -36.3285 56.5002
10.227 -34.7732 68.5738 13.5356 -37.894 57.6225
9.94518 -35.7856 66.7926 13.7827 -37.6621 55.3867
9.82646 -35.6158 67.3543 13.8254 -37.0879 56.1399
7.12726 -37.1986 66.2906 12.3475 -43.1279 53.777
7.01788 -37.0473 66.9502 12.601 -42.6126 54.6312
6.62035 -37.8742 64.5937 11.2788 -44.9282 52.2677
6.50121 -37.7659 65.2843 11.3762 -44.8559 52.592
7.90628 -36.9729 65.9915 12.8498 -41.8171 54.4948
7.80393 -36.7878 66.5986 12.9577 -41.4464 54.5771
7.46901 -37.6207 64.3313 11.8505 -43.9547 52.539
7.34875 -37.4919 64.9929 12.1917 -43.3697 53.0977
8.69334 -36.7797 65.7097 13.0755 -40.9847 54.1893
8.58359 -36.604 66.3035 13.2473 -40.3153 54.9727
8.2525 -37.3929 64.0924 12.3699 -42.7426 52.5008
8.13629 -37.2773 64.7361 12.5499 -42.4449 53.1445
9.52199 -36.5154 65.4049 13.4302 -39.5614 54.0555
9.38515 -36.3821 65.994 13.4689 -39.3553 54.7183
9.09032 -37.1029 63.8514 12.8757 -41.3465 52.576
8.94639 -37.0286 64.4769 13.0643 -40.8596 53.0744
6.27617 -38.3199 62.5911 9.91065 -46.1793 50.1266
6.06895 -38.2943 63.3577 10.1063 -46.2289 50.9346
6.00849 -38.5674 60.5382 9.18359 -46.2659 48.2201
5.80403 -38.586 61.2562 9.27973 -46.475 48.9209
7.07312 -38.0742 62.4456 10.8053 -45.0576 50.4345
6.94782 -38.0286 63.1655 11.1228 -44.875 51.2222
6.74538 -38.3134 60.4141 9.76217 -45.5155 48.2032
6.60592 -38.3469 61.1532 9.9224 -45.7169 49.0497
7.81865 -37.816 62.2718 11.3144 -44.175 50.3756
7.71051 -37.782 62.9678 11.639 -43.9311 51.2283
7.44444 -38.0271 60.2796 9.76217 -45.5155 48.2032
7.32071 -38.0748 61.0105 9.9224 -45.7169 49.0497
8.64776 -37.4992 62.1019 12.0048 -42.652 50.0129
8.50456 -37.5012 62.7711 12.0839 -42.8611 50.9162
8.24883 -37.6892 60.1657 9.30277 -46.2487 48.4565
8.08557 -37.7663 60.8717 10.6954 -44.5879 49.0228
5.88654 -38.6076 58.5009 8.74505 -45.4516 45.8522
5.64696 -38.6955 59.2248 8.67001 -46.1608 46.8806
5.90567 -38.3761 56.5099 8.56435 -43.5454 42.7889
5.64138 -38.579 57.253 8.34004 -44.5009 43.7445
6.56688 -38.3286 58.3294 8.94633 -44.8251 45.2547
6.38753 -38.4459 59.0752 9.29021 -45.0668 46.2982
6.53528 -38.0567 56.2668 9.224 -42.5996 42.4449
6.33018 -38.2874 57.0121 9.0354 -43.3675 43.3077
7.66957 -35.7634 70.4202 13.5897 -37.7716 57.2164
7.83513 -35.5453 71.0243 13.5498 -37.3675 58.0053
6.89041 -36.5764 69.489 13.111 -40.8697 55.9894
7.09733 -36.3336 70.0803 13.4189 -39.0885 56.9025
7.94694 -35.65 69.6951 13.6172 -37.8483 56.8066
8.09047 -35.4074 70.3117 13.6344 -37.4679 57.2579
7.12325 -36.5483 68.5057 13.0695 -41.0614 55.3698
7.31912 -36.2489 69.2123 13.3232 -39.8903 56.1325
6.084 -37.4484 68.7987 12.1776 -43.7359 54.6528
6.30643 -37.1684 69.3361 12.69 -42.3959 55.5819
5.27806 -38.2544 68.3273 11.1496 -45.4763 53.7295
5.51088 -38.0175 68.819 11.6969 -44.6476 54.1519
6.2733 -37.4382 67.6814 12.0881 -43.8421 54.0904
6.47211 -37.1559 68.245 12.4978 -42.9591 54.8786
5.42436 -38.2074 67.241 10.9329 -45.7229 53.1876
5.65236 -37.9676 67.7434 11.464 -44.9677 53.6921
4.45271 -38.7974 67.9652 9.67087 -47.4375 52.695
4.70616 -38.6736 68.436 10.3432 -46.5717 53.1688
3.59759 -39.0425 67.6806 8.00789 -49.0991 51.9046
3.87278 -39.016 68.1282 8.89281 -48.1669 51.8304
4.54421 -38.7418 66.8537 9.60327 -47.3199 52.064
4.7966 -38.618 67.3541 10.2959 -46.5339 52.846
3.63772 -38.9813 66.5341 7.77119 -49.1287 51.4737
3.92512 -38.9477 67.0172 8.89281 -48.1669 51.8304
2.7312 -39.0792 67.4837 6.50471 -50.0521 51.5078
3.02236 -39.1099 67.9044 7.23419 -49.5952 51.6005
1.87664 -39.068 67.349 4.38581 -51.2385 51.7175
2.17291 -39.0932 67.755 5.33511 -50.7519 51.5874
2.71287 -39.0308 66.3245 6.34611 -49.8636 50.8836
3.01902 -39.0455 66.7768 7.1278 -49.4379 51.0376
1.82594 -39.0403 66.1946 4.17422 -51.0329 51.1579
2.12877 -39.0394 66.6254 4.93107 -50.5307 50.7828
1.05243 -39.1565 67.24 1.7111 -52.6913 52.8599
1.33914 -39.1304 67.6407 2.95543 -52.3275 52.7465
0.257193 -39.2712 67.1738 -0.500317 -52.7216 52.681
0.528022 -39.2512 67.5542 0.0979002 -53.5557 53.9273
1.00689 -39.1535 66.0943 2.49229 -51.6017 51.2897
1.28709 -39.095 66.5175 2.78692 -51.8084 51.7814
0.244208 -39.2846 66.0316 -0.753588 -51.8125 51.1936
0.501401 -39.2349 66.4363 0.144673 -51.9207 51.3351
4.12097 -38.8467 62.3153 7.89941 -48.3133 49.7208
3.7495 -38.8973 62.7913 7.65992 -48.5658 49.805
4.05525 -38.9152 60.6197 7.125 -48.1863 48.1657
3.70039 -38.9448 61.1708 7.28421 -48.394 48.8504
5.29382 -38.5743 62.6433 9.25793 -47.0525 50.2217
4.95437 -38.6155 63.1699 8.69101 -47.6508 49.9543
5.11827 -38.762 60.6171 8.16515 -47.223 47.9629
4.81529 -38.7758 61.2376 8.23481 -47.5119 48.6926
2.69868 -39.0208 65.0332 5.73126 -50.0858 50.6251
3.02353 -39.0086 65.5332 6.67556 -49.56 50.5952
1.77668 -39.0846 64.9281 3.73802 -51.0473 50.9031
2.08518 -39.0439 65.3936 4.66739 -50.6185 50.7232
2.67542 -39.048 63.6183 5.80249 -49.8457 50.1608
3.02446 -39.0019 64.1417 6.67625 -49.2065 49.7755
1.72762 -39.1873 63.5681 3.32699 -50.9196 50.4178
2.04112 -39.1076 64.0442 4.5786 -50.3417 50.0799
2.63376 -39.1004 62.1456 6.17608 -49.3654 49.519
3.00056 -39.0258 62.6501 6.67625 -49.2065 49.7755
1.67855 -39.311 62.1842 4.11257 -50.2166 49.5182
1.99511 -39.2023 62.6378 4.71329 -50.0825 49.6418
2.59889 -39.1597 60.7089 5.78775 -49.1522 48.6208
2.96213 -39.0701 61.1425 6.23268 -49.0085 48.7954
1.63858 -39.422 60.8699 4.38894 -49.6826 48.6109
1.95396 -39.2987 61.2585 5.1278 -49.6586 49.1089
0.964052 -39.2393 64.8451 1.48227 -51.4473 50.7032
1.23723 -39.1394 65.3058 2.43336 -51.3952 50.9043
0.23231 -39.3884 64.7824 -0.510115 -51.4886 50.6111
0.476519 -39.303 65.2288 0.220228 -51.5558 50.713
0.923522 -39.3946 63.5091 1.41815 -51.2958 50.4115
1.18999 -39.2642 63.9913 2.43071 -51.0249 50.2179
0.221065 -39.5617 63.4428 -0.299525 -51.2531 50.1633
0.453376 -39.455 63.9164 -0.299525 -51.2531 50.1633
0.884547 -39.57 62.1581 1.91766 -50.6814 49.4173
1.14458 -39.4263 62.6323 2.30687 -50.8661 49.8833
0.210112 -39.7539 62.0918 0.175973 -50.9268 49.5548
0.431177 -39.645 62.5613 0.194934 -51.1058 49.8849
0.850025 -39.7166 60.9124 2.24184 -50.1642 48.5354
1.10314 -39.578 61.3214 3.18478 -50.464 49.4943
0.200259 -39.9091 60.8799 0.132191 -50.3825 48.5357
0.410371 -39.8175 61.2796 1.09528 -50.4987 48.865
4.1164 -38.8293 64.4239 8.46764 -48.0421 50.3437
3.75969 -38.8948 63.8086 7.60398 -48.7402 50.1141
5.24472 -38.4652 64.9258 10.0264 -46.4239 51.2667
4.93961 -38.6007 64.2613 9.38128 -47.2053 50.9545
4.01406 -38.8823 65.8057 8.73619 -48.107 51.2092
3.70602 -38.9243 65.2571 7.71281 -48.938 50.8534
4.97229 -38.545 66.202 10.1037 -46.6321 52.3003
4.72955 -38.6519 65.637 9.60776 -47.2176 51.7942
9.91246 -32.171 73.0013 13.9213 -29.7939 60.4165
10.021 -32.4917 72.4394 14.0821 -30.2289 59.8948
9.84588 -31.0494 74.0822 13.5892 -28.5295 60.9297
9.99524 -31.3512 73.5639 13.6794 -28.6744 60.7036
9.59145 -32.3525 73.4982 13.8363 -30.1843 60.8052
9.68272 -32.6591 72.9464 13.8602 -30.7034 60.8443
9.53407 -31.2794 74.5637 13.5647 -28.9573 61.2575
9.67182 -31.5626 74.0714 13.6874 -28.9835 60.8474
9.28675 -32.5369 73.9848 13.8311 -30.8403 60.9706
9.37047 -32.8292 73.4348 13.8732 -31.3375 60.7541
9.23741 -31.5093 75.0235 13.6232 -29.3424 61.2893
9.36997 -31.777 74.5405 13.6232 -29.3424 61.2893
8.9782 -32.7401 74.4771 13.7272 -31.2202 61.2853
9.06268 -33.0119 73.9367 13.7879 -31.7628 60.9983
8.94091 -31.7502 75.4801 13.5247 -30.0002 61.8661
9.06972 -31.9975 75.0082 13.6541 -30.2075 61.489
9.70334 -30.0267 74.9776 12.9684 -26.8473 61.7054
9.86272 -30.2664 74.5331 13.1632 -26.8047 61.133
9.52382 -29.1231 75.7181 12.6366 -26.2003 62.2789
9.68784 -29.3134 75.3255 12.7712 -26.406 62.0358
9.40506 -30.3007 75.4359 12.9466 -27.5153 62.1972
9.54875 -30.5265 75.0189 13.1518 -27.7732 61.8157
9.24978 -29.4266 76.1537 12.477 -26.7684 62.9552
9.39564 -29.6106 75.7871 12.8188 -27.0582 62.2586
9.12244 -30.5702 75.872 12.9135 -28.0206 62.5973
9.25782 -30.7859 75.4636 13.1236 -27.941 61.9984
8.98828 -29.7223 76.5687 12.6551 -27.445 62.932
9.12382 -29.901 76.2109 12.6551 -27.445 62.932
8.84457 -30.8452 76.302 13.116 -28.7249 62.4899
8.97322 -31.0464 75.9038 13.116 -28.7249 62.4899
8.7305 -30.0212 76.9769 12.6823 -28.2731 63.3535
8.85825 -30.1904 76.628 12.9152 -28.2498 62.7402
9.29394 -28.287 76.3934 12.1878 -24.497 62.8412
9.46665 -28.4527 76.0216 12.3671 -25.1343 62.5632
8.99231 -27.4712 77.0748 11.7708 -22.6519 63.5529
9.17879 -27.6289 76.7037 11.8765 -22.9745 63.3608
9.05116 -28.6071 76.8038 12.0257 -25.1321 63.3769
9.20525 -28.7734 76.4566 12.1733 -25.8811 63.2551
8.78748 -27.8002 77.463 11.6713 -23.0932 63.793
8.95336 -27.963 77.1118 11.8728 -23.5766 63.4169
8.81769 -28.9178 77.1957 11.9849 -27.9932 64.6658
8.96014 -29.0817 76.8588 12.3464 -28.0841 63.9795
8.59258 -28.1182 77.8347 11.491 -23.7206 64.2279
8.74282 -28.2805 77.492 11.5807 -24.4597 64.153
8.58426 -29.2314 77.5846 12.4129 -31.6971 65.1905
8.71807 -29.3892 77.2545 12.5553 -29.4626 64.253
8.39541 -28.439 78.2079 11.5635 -24.0927 64.1337
8.53363 -28.5977 77.8685 11.6009 -26.8603 64.8441
8.60166 -26.6512 77.805 11.4784 -20.8533 64.0697
8.80592 -26.8083 77.4193 11.7586 -20.9904 63.5093
8.11412 -25.8506 78.5735 11.2003 -19.5817 64.5869
8.3376 -25.9932 78.1801 11.2094 -19.6482 64.5699
8.44176 -26.9859 78.1849 11.1944 -20.9941 64.6092
8.62217 -27.1513 77.8117 11.5727 -22.0672 63.926
7.99663 -26.1887 78.9562 11.1251 -19.697 64.7104
8.19777 -26.3432 78.5715 11.0565 -20.2393 64.8293
8.29816 -27.3065 78.5463 11.2408 -21.6984 64.5569
8.45682 -27.4725 78.1789 11.3253 -22.0287 64.4235
7.90099 -26.5096 79.3152 10.7583 -19.9925 65.3348
8.08196 -26.6654 78.9369 11.0565 -20.2393 64.8293
8.15352 -27.629 78.9084 11.0716 -22.2558 64.8812
8.2957 -27.7935 78.5415 11.316 -22.5561 64.4669
7.80538 -26.8305 79.67 10.5168 -20.6419 65.7222
7.97502 -26.9863 79.2915 10.8449 -21.1973 65.2267
7.537 -25.117 79.3329 10.5091 -17.8628 65.7686
7.77793 -25.2293 78.9485 10.8413 -18.4763 65.2194
6.92532 -24.4794 80.0273 10.1316 -16.8883 66.3604
7.16243 -24.5563 79.6719 10.285 -17.2165 66.1245
7.44491 -25.4567 79.7181 10.2692 -18.5182 66.0766
7.67205 -25.5838 79.3426 10.553 -18.685 65.6644
6.8403 -24.8205 80.41 9.90339 -17.3409 66.6244
7.07276 -24.9131 80.0639 10.3159 -17.5582 66.0589
7.36954 -25.7772 80.0767 10.2928 -18.768 66.0366
7.58851 -25.9059 79.7099 10.634 -19.0409 65.5429
6.75873 -25.1405 80.7671 9.58157 -17.7593 66.9971
6.99348 -25.2354 80.431 10.0212 -17.7824 66.4606
7.2908 -26.0953 80.4266 10.1568 -19.23 66.2313
7.51238 -26.2251 80.0604 10.36 -19.4227 65.933
6.66887 -25.4548 81.1137 9.58157 -17.7593 66.9971
6.91321 -25.5524 80.7789 9.7741 -18.1653 66.744
3.71657 -22.4264 82.1603 5.83407 -12.7257 70.4337
4.05315 -22.4112 81.9669 6.56707 -12.6472 69.9498
2.68307 -22.1506 82.3476 3.93322 -11.6999 71.477
3.06568 -22.1235 82.2002 4.57478 -11.969 71.1673
3.65077 -22.7484 82.476 5.60847 -12.983 70.5629
3.97973 -22.7545 82.2887 5.91664 -13.0396 70.363
2.63082 -22.4495 82.6331 4.24716 -12.1955 71.3188
3.00501 -22.4474 82.4951 4.35568 -12.3627 71.267
3.59378 -23.0396 82.8015 5.58 -13.3112 70.5622
3.91704 -23.0589 82.616 5.99362 -13.5571 70.2871
2.58441 -22.7171 82.9321 3.86022 -12.4646 71.4978
2.95333 -22.7312 82.7994 4.35568 -12.3627 71.267
3.54102 -23.3086 83.1346 5.58 -13.3112 70.5622
3.85987 -23.3403 82.9518 6.01867 -13.8314 70.2642
2.5407 -22.9681 83.2416 3.86022 -12.4646 71.4978
2.90601 -22.9938 83.117 4.42176 -12.964 71.2322
1.55563 -21.947 82.4182 2.74846 -11.2181 71.9095
1.95338 -21.9023 82.3217 2.81959 -11.3161 71.8847
0.388693 -21.8421 82.4183 0.782442 -11.7085 72.3199
0.786817 -21.7699 82.3456 1.41317 -11.6756 72.2288
1.52263 -22.2145 82.663 2.44385 -11.5371 72.0048
1.91113 -22.1973 82.582 2.96603 -11.4668 71.8342
0.380307 -22.0868 82.6316 0.782442 -11.7085 72.3199
0.769 -22.0364 82.5718 1.41317 -11.6756 72.2288
1.49194 -22.4534 82.916 2.22759 -11.7689 72.0498
1.87341 -22.4526 82.8467 2.77438 -11.4561 71.8985
0.372163 -22.3063 82.8465 0.782442 -11.7085 72.3199
0.75247 -22.2657 82.7921 1.41317 -11.6756 72.2288
1.46252 -22.684 83.1841 2.22759 -11.7689 72.0498
1.83763 -22.6922 83.126 2.45718 -11.8295 72
0.364357 -22.5235 83.0826 0.782442 -11.7085 72.3199
0.73652 -22.4857 83.0285 1.36919 -11.9696 72.2372
8.5219 -34.6408 71.9068 13.7486 -34.9911 58.9908
8.24642 -34.9953 71.7257 13.7173 -35.7281 58.484
8.8294 -34.4851 71.334 13.8157 -35.1227 58.5665
8.53152 -34.8348 71.0969 13.7173 -35.7281 58.484
8.93148 -33.6863 73.1359 13.8097 -33.0891 60.2797
8.72256 -34.0756 72.9153 13.8209 -33.7359 59.7561
9.24361 -33.5198 72.6152 13.9418 -32.3332 60.141
9.02869 -33.9019 72.3645 13.9203 -33.1491 59.7836
9.20538 -34.3441 70.864 13.6832 -35.5764 58.8179
8.8902 -34.6942 70.5806 13.6462 -36.2468 58.4175
9.65408 -34.2022 70.4549 13.4866 -37.0104 58.7518
9.34263 -34.5549 70.1723 13.3686 -38.2118 58.5717
9.57763 -33.369 72.1359 14.0065 -32.3455 59.8734
9.3595 -33.7529 71.8682 13.9203 -33.1491 59.7836
9.94857 -33.2183 71.6629 14.1239 -31.9101 59.5671
9.73496 -33.6075 71.4143 14.0368 -33.0864 59.3072
0.235545 -17.4432 43.2974 0.481441 -9.96419 32.6503
0.114485 -17.1006 43.3169 0.561852 -9.17048 32.6679
0.702172 -17.3445 43.3008 1.03499 -9.78817 32.6871
0.519743 -17.0446 43.3191 0.561852 -9.17048 32.6679
0.247423 -18.348 43.2619 0.751286 -11.5152 32.6157
0.12106 -18.0731 43.2702 0.689083 -10.6748 32.6396
0.730447 -18.2529 43.2626 1.95182 -12.673 32.6862
0.544337 -18.0181 43.2709 1.04813 -10.7093 32.6599
0.25759 -19.1611 43.2538 0.495355 -12.0176 32.5839
0.126363 -18.8992 43.2544 0.306864 -11.4587 32.5911
0.755064 -19.068 43.2506 0.78446 -12.0442 32.6002
0.56476 -18.8447 43.2531 0.78446 -12.0442 32.6002
0.265971 -19.9471 43.2792 0.308966 -12.336 32.5596
0.131227 -19.6943 43.2691 0.270804 -12.1011 32.5678
0.775479 -19.8487 43.2644 0.693883 -12.3736 32.5805
0.582637 -19.6372 43.2615 0.693883 -12.3736 32.5805
1.4135 -17.0399 43.3254 2.2128 -10.8763 32.7938
1.13018 -16.8158 43.3364 1.35068 -9.30241 32.7287
2.36883 -16.5426 43.4339 2.76305 -8.93913 32.9163
2.00442 -16.3639 43.4119 2.23367 -9.03266 32.8437
1.45709 -17.9681 43.2787 3.5363 -15.2941 32.6688
1.1716 -17.8034 43.2816 2.89434 -12.5181 32.8069
2.43005 -17.5041 43.3736 3.42433 -11.4432 32.923
2.0634 -17.3834 43.3445 3.46041 -11.9796 32.9046
1.49543 -18.7991 43.2582 2.4581 -13.5328 32.6945
1.20624 -18.6409 43.2572 2.4581 -13.5328 32.6945
2.48427 -18.3632 43.3412 2.56611 -10.823 32.8376
2.11293 -18.247 43.3087 3.3005 -12.7599 32.8366
1.52885 -19.5846 43.2602 1.63633 -12.0959 32.6806
1.2371 -19.4377 43.2545 1.14942 -12.1852 32.6194
2.53378 -19.1657 43.3369 2.34769 -11.6354 32.7821
2.15852 -19.0621 43.2963 2.2827 -11.8697 32.7658
3.48304 -15.9324 43.7122 3.35245 -7.4961 33.0221
3.06844 -15.7684 43.629 3.35245 -7.4961 33.0221
4.67836 -15.1991 44.2188 4.42827 -5.49763 33.2241
4.236 -15.0667 44.059 3.80705 -5.69002 33.0993
3.56753 -16.9309 43.6367 3.31822 -8.4472 33.0058
3.15008 -16.8273 43.5462 3.42825 -8.6171 33.0184
4.78491 -16.2426 44.1294 4.93201 -7.18349 33.391
4.34286 -16.1684 43.9625 3.80166 -7.20834 33.1093
3.64245 -17.8218 43.5906 3.3629 -9.54258 32.99
3.21884 -17.7239 43.4965 3.2372 -9.65086 32.9701
4.87862 -17.1703 44.067 4.56797 -8.3949 33.2516
4.4332 -17.1031 43.8977 4.16554 -8.46938 33.1659
3.71168 -18.6473 43.5823 3.58353 -10.3365 32.9982
3.28314 -18.5647 43.4759 3.15515 -10.1577 32.9448
4.96297 -18.0203 44.0462 4.80145 -9.37959 33.3045
4.5164 -17.9717 43.8663 4.35342 -9.64695 33.1704
6.71055 -13.6287 45.5759 6.61227 -4.1237 34.049
7.07378 -12.8352 45.9409 7.29252 -2.39991 34.3921
6.82968 -14.7842 45.4636 6.74565 -5.13706 34.191
7.19917 -14.0848 45.8226 7.05431 -4.36248 34.3532
5.4922 -14.6294 44.6924 5.68175 -5.02703 33.6215
5.8541 -13.8881 45.0104 6.03306 -4.09959 33.7564
5.60738 -15.7134 44.5921 5.58625 -6.28182 33.6184
5.97916 -15.0695 44.8988 6.01428 -5.88504 33.8305
13.6408 -3.96134 65.1368 13.7232 8.29541 51.9519
13.555 -4.36444 65.7053 13.7685 7.80236 52.5423
13.9115 -3.87581 63.3072 13.4924 7.93762 50.2214
13.8848 -4.33649 63.9408 13.5444 7.73752 50.7633
13.5098 -2.77834 65.0964 13.7806 9.81442 51.7155
13.4466 -3.21614 65.6627 13.85 9.48132 52.9102
13.7275 -2.57037 63.311 13.4854 7.20273 50.4423
13.7306 -3.06285 63.9369 13.613 9.05798 50.6691
13.2843 -6.10898 67.2586 14.0079 5.45939 54.2934
13.4391 -6.54007 66.7705 13.935 5.18415 53.5228
13.219 -5.0384 67.2484 13.956 7.10864 54.3755
13.3726 -5.42731 66.7725 13.9229 6.34094 53.7924
12.8501 -5.9482 68.6144 14.1249 5.75287 55.8855
13.0183 -6.34572 68.1823 14.1069 5.37475 55.3352
12.7974 -4.96388 68.5884 14.0695 7.11599 56.0198
12.9624 -5.32255 68.1666 14.0628 6.78572 55.6112
12.37 -7.08365 69.9552 14.3167 3.39592 57.7985
12.5538 -6.83506 69.5048 14.2479 4.22999 56.8937
11.6377 -6.83932 71.2444 13.9971 -3.88742 60.8497
11.8911 -6.61602 70.803 14.3597 -0.210314 59.4928
12.4145 -8.06293 69.9918 14.3852 2.44306 57.8623
12.6049 -7.83555 69.5349 14.3166 3.22701 56.8732
11.6648 -7.735 71.2997 14.3067 -0.859858 59.8184
11.9262 -7.53433 70.8535 14.3191 -0.694531 59.7415
12.442 -9.03667 70.0247 14.4332 1.90925 57.5821
12.6447 -8.84025 69.5631 14.4247 2.06639 57.0747
11.6778 -8.62981 71.3489 14.2257 1.43271 59.9391
11.9504 -8.46003 70.8996 14.3561 1.55717 59.0519
12.4417 -9.95807 70.0575 14.5152 0.487664 58.117
12.6585 -9.80726 69.5895 14.54 0.657615 56.8786
11.6682 -9.48375 71.395 14.2582 0.893792 59.8763
11.9526 -9.35726 70.9419 14.3673 1.23507 59.1161
10.708 -6.59773 72.4338 13.7483 3.74047 61.6708
11.0335 -6.4024 72.029 13.9527 1.84612 61.146
9.67777 -6.3527 73.4619 13.1908 5.32953 63.2494
10.025 -6.18558 73.1135 13.2829 5.45335 62.9923
10.7186 -7.40654 72.5018 13.6399 2.95813 62.1467
11.0508 -7.23532 72.0954 13.8259 0.29551 61.6676
9.67726 -7.08085 73.5365 13.0977 4.4585 63.5697
10.0284 -6.93606 73.1886 13.2699 4.39066 63.1257
10.7206 -8.21671 72.5621 13.7283 2.11245 61.9104
11.0599 -8.076 72.1553 13.9527 1.84612 61.146
9.67392 -7.81061 73.6036 13.0979 3.42119 63.6453
10.0281 -7.69205 73.2565 13.313 3.55466 63.0792
10.7086 -8.9983 72.6168 13.752 1.66346 61.8656
11.0541 -8.89702 72.2087 13.9527 1.84612 61.146
9.66472 -8.52374 73.6647 13.0817 2.67688 63.7145
10.0209 -8.43656 73.3173 13.1674 2.86943 63.4865
8.70461 -6.10119 74.2919 12.5139 5.7324 64.7887
9.01782 -5.95807 74.0115 12.7218 6.25429 64.3501
7.8837 -5.84887 74.935 11.6005 6.60592 66.3085
8.14052 -5.72097 74.7131 12.0179 6.79496 65.6776
8.69918 -6.76672 74.3696 12.6403 5.16402 64.5731
9.01339 -6.64061 74.0902 12.7382 5.47756 64.3623
7.8769 -6.47021 75.0144 11.7775 5.48573 66.0841
8.13358 -6.3552 74.7932 12.1293 5.62731 65.5388
8.69366 -7.43329 74.4418 12.4215 4.81629 65.0158
9.00883 -7.32553 74.163 12.5854 4.64497 64.7109
7.8701 -7.09264 75.0908 11.7786 4.56629 66.1119
8.12734 -6.98949 74.8695 12.114 4.94611 65.5952
8.68698 -8.09267 74.5094 12.3797 3.302 65.144
9.00258 -8.00555 74.2298 12.5649 3.73361 64.7864
7.86339 -7.71481 75.1651 11.7345 3.93912 66.1915
8.12083 -7.62355 74.9426 12.0835 4.12162 65.6752
4.76622 -4.19577 76.758 7.24768 8.81539 70.1409
5.09219 -4.20536 76.631 7.66007 8.83598 69.9189
3.60691 -3.49941 76.9622 5.11238 9.95947 71.1105
4.03524 -3.57695 76.8803 5.61607 9.74382 70.9055
4.74055 -4.72433 76.8445 7.04553 8.29769 70.2594
5.07003 -4.73481 76.717 7.59438 8.27205 69.9737
3.5789 -4.03501 77.05 5.00511 9.23393 71.1768
4.00841 -4.10775 76.9674 6.11072 9.18048 70.7165
4.70981 -5.25944 76.933 7.22575 7.82145 70.1765
5.04299 -5.26799 76.8047 7.72569 7.62283 69.9035
3.5474 -4.578 77.1392 5.07855 8.56633 71.1655
3.97786 -4.64303 77.0555 5.55892 8.36566 70.9695
4.67726 -5.81604 77.0251 6.73197 6.80491 70.4486
5.01219 -5.81519 76.8957 7.76914 6.98717 69.887
3.51468 -5.1476 77.231 4.95822 8.15053 71.2271
3.94442 -5.19525 77.1461 5.69589 7.93045 70.9226
2.17081 -2.65225 76.9698 2.93328 11.4873 71.6892
2.68609 -2.76453 76.9623 3.26264 11.2811 71.6311
0.55293 -2.06039 76.8905 0.528004 12.0502 71.9546
1.11145 -2.01686 76.8873 1.24448 12.2371 71.8901
2.14984 -3.21353 77.0618 2.74678 10.4278 71.7696
2.66212 -3.31439 77.0524 3.4459 9.95411 71.6451
0.54708 -2.64556 76.9866 0.55892 11.33 71.9928
1.10001 -2.59492 76.9823 1.28502 11.2208 71.9398
2.12712 -3.78228 77.1546 2.85485 9.55748 71.7837
2.63616 -3.86911 77.1431 3.55246 9.57057 71.6384
0.540783 -3.23771 77.0832 0.339527 10.7349 72.0313
1.08786 -3.17734 77.0775 1.1383 10.7897 71.9739
2.10377 -4.38203 77.2498 2.66835 9.08357 71.8441
2.60861 -4.44351 77.2355 3.60873 8.83183 71.6497
0.534417 -3.86355 77.183 0.630045 9.77133 72.0708
1.0752 -3.78117 77.1746 1.25348 9.67742 72.0178
13.819 -6.36417 65.1257 13.7025 5.3839 51.8881
13.7068 -6.7001 65.6968 13.7881 5.0511 52.4723
14.1226 -6.53835 63.2419 13.4498 4.87223 50.3123
14.0568 -6.91226 63.8806 13.5793 4.72666 51.0524
13.7444 -5.15514 65.1455 13.6422 6.65636 51.6106
13.6396 -5.52248 65.7131 13.7666 6.52294 52.5755
14.0441 -5.20737 63.2831 13.4727 6.78619 50.4295
13.9895 -5.62292 63.9193 13.5569 6.35843 51.0774
12.4088 -10.7819 70.0968 14.5773 -0.0429397 57.6377
12.64 -10.686 69.6209 14.6153 -0.442874 57.1766
11.631 -10.2568 71.444 14.33 0.459275 59.5665
11.9261 -10.1805 70.9865 14.389 0.59014 59.2232
12.3523 -11.5133 70.1422 14.6493 -1.20582 57.604
12.5923 -11.4586 69.66 14.6839 -1.327 56.8503
11.5744 -10.9519 71.4972 14.2969 -0.274337 59.8105
11.8737 -10.9129 71.0365 14.465 -0.521871 58.9762
4.64804 -6.40922 77.1215 7.15593 6.14358 70.2374
4.98326 -6.39184 76.9913 8.01578 6.19097 69.7397
3.48409 -5.76478 77.3266 5.0492 7.62629 71.199
3.91229 -5.78576 77.2402 5.51707 7.23264 71.0107
4.62095 -7.02668 77.2222 6.73288 5.28031 70.4818
4.9582 -6.99764 77.0911 7.60638 5.38524 70.0139
3.45443 -6.41775 77.4277 4.86305 6.37349 71.3124
3.88259 -6.41727 77.339 5.53079 6.29744 71.0228
4.59135 -7.63636 77.3258 6.91978 4.83972 70.3911
4.9324 -7.60477 77.1938 7.4497 4.57585 70.1121
3.42264 -7.06998 77.5345 4.5571 5.39802 71.4424
3.85175 -7.05874 77.4429 5.4556 5.61964 71.073
4.55796 -8.20408 77.4273 6.71163 3.72446 70.5094
4.90227 -8.18088 77.2963 7.4851 3.97794 70.0899
3.38919 -7.67765 77.6388 4.54712 4.4407 71.4713
3.81793 -7.6708 77.5484 5.33235 4.60301 71.1528
2.08139 -5.03983 77.3504 2.86544 7.69825 71.8541
2.58164 -5.06514 77.3317 3.70401 8.17363 71.6409
