-1.96102 2.21185 71.5471 0.865658 0.440099 -0.23864
-4.59219 -2.77583 54.5557 0.523897 0.781059 -0.339821
-13.9939 9.12187 120.584 -0.746557 0.570436 -0.342425
-6.57901 1.35632 60.3492 0.201689 0.841151 -0.501783
5.98742 -1.41612 135.896 0.265185 -0.723283 0.637604
10.363 0.376805 23.1646 0.957053 0.171984 -0.233389
3.82876 4.32472 11.1926 -0.958387 0.260617 0.116504
-7.58334 4.47927 7.36867 -0.863517 0.437609 0.250673
-13.0955 -0.0680746 36.5518 -0.946209 0.319446 0.0514074
63.3241 -3.76397 130.748 -0.152017 -0.550513 0.82087
2.37947 -6.71222 67.5041 -0.895748 -0.442396 0.0438328
-38.5375 7.02891 133.644 0.0303533 0.266914 0.963242
10.1125 14.4301 130.378 0.345185 0.938276 0.0220064
14.5097 5.11875 121.214 0.933406 -0.351447 -0.0723685
-9.65387 6.58312 71.2823 -0.232713 0.919985 -0.315392
-13.6112 -7.57704 76.8814 -0.752004 -0.639586 0.159435
2.05258 0.873802 68.3677 -0.885654 0.426843 -0.182818
23.4433 9.53805 136.386 0.44831 0.60539 0.657663
15.6984 -3.04911 69.7318 0.99688 0.0312072 -0.0725005
-50.2034 6.0215 126.651 -0.279239 0.68742 -0.670432
23.6425 3.34923 135.509 0.301729 -0.802557 0.514648
-31.3061 2.71835 130.933 0.00532174 -0.98014 -0.198236
-12.0419 -6.23412 84.982 -0.336744 -0.874717 0.348532
0.0631765 -2.9491 78.5693 0.0102487 -0.00501606 -0.999935
-6.46239 0.569147 159.048 -0.991543 -0.123729 0.0391507
-10.2244 14.3745 128.883 -0.323899 0.946083 -0.00403341
3.82867 -2.80566 55.8608 -0.692161 0.635414 -0.34229
10.3927 11.2855 91.1707 0.626797 0.722407 0.291983
-8.11967 11.889 92.6122 -0.280918 0.856357 0.433286
15.0491 -3.028 83.1979 0.966559 -0.239477 0.0917265
-5.36864 -4.59573 153.434 -0.884215 -0.43662 -0.165913
79.5459 -4.24325 126.522 0.111965 0.810456 -0.575001
6.82037 -6.00593 88.9652 0.0811741 -0.995118 -0.0561327
10.5019 10.5308 80.09 0.596155 0.721573 -0.352039
-53.8165 3.4325 126.518 -0.198764 0.104777 -0.974431
4.61688 -2.3883 55.3591 -0.495421 0.791484 -0.357926
-13.4673 11.9027 136.822 -0.282326 0.79017 0.543989
7.66817 -0.797048 56.2989 -0.154809 0.858866 -0.488245
-8.42487 0.574373 8.72821 -0.940779 -0.127622 0.314083
4.74615 -0.117375 3.1409 -0.393314 -0.124097 -0.910991
13.3004 2.09524 117.872 0.954037 -0.29203 -0.0673236
-12.1875 7.43312 95.9185 -0.826328 0.469852 0.310518
10.7255 -11.4784 0.956758 0.955417 0.209178 -0.208384
-33.4794 2.77398 132.069 -0.13048 -0.97381 0.186198
-1.2893 9.00086 100.323 0.146245 0.944199 0.295128
-70.7782 -4.58939 130.657 -0.176816 0.401932 0.898436
6.07857 4.75863 14.5317 0.232034 0.969835 0.0747077
-4.96546 5.16528 146.995 0.939772 -0.341522 0.0138261
-2.95702 1.75208 66.3985 0.748724 0.601008 -0.279644
-14.207 3.87798 125.419 -0.936442 -0.346345 -0.0558758
9.47533 0.796316 42.3661 0.167518 0.894204 0.415134
-53.2331 4.9141 126.968 -0.337157 0.581316 -0.740538
-12.9847 -9.98762 64.1635 -0.603881 -0.797073 0.00162964
10.0462 -5.4245 127.436 0.396425 -0.845523 0.357684
3.29629 0.550367 20.4811 -0.992178 -0.120574 -0.0323258
3.10545 -6.35538 4.57528 -0.983796 -0.144144 0.106618
6.33381 -10.9212 0.00272167 0.0142051 0.261949 -0.964977
-28.6897 8.29171 127.311 0.0835283 0.161843 -0.983275
-2.44482 -1.96005 5.76247 0.976582 -0.0969848 -0.192046
1.25659 12.1692 85.8785 -0.54969 0.808488 -0.210211
0.736122 -7.50094 160.418 0.116972 -0.970992 0.208549
5.43108 -4.53333 153.603 0.884215 -0.43662 -0.165913
6.61891 -8.18654 40.0299 -0.690578 -0.688191 -0.222474
-72.4651 -3.87094 127.565 -0.25249 -0.0786508 -0.964397
-24.1708 6.77079 128.097 0.204975 -0.419213 -0.884446
9.65622 -1.8158 22.2623 0.892738 -0.347298 -0.287061
8.85265 -13.4727 53.3644 0.320999 -0.924288 0.206521
-9.48413 3.30847 26.859 -0.443848 0.895544 -0.03162
5.01043 -12.0381 57.1808 -0.61922 -0.779364 0.0957022
-73.5033 -1.25688 128.288 -0.268801 0.119467 0.955758
-3.25012 -0.674108 4.12691 0.813105 -0.173434 -0.555681
-4.32329 -0.068157 147.872 -0.87961 -0.0751704 -0.469719
0.850595 -7.71367 103.433 -0.042342 -0.999088 0.00556792
-17.5274 5.36612 139.474 -0.16378 -0.0780369 0.983405
-3.01708 -8.23679 114.457 -0.116831 -0.990018 -0.0788359
0.293464 -7.03735 88.4781 0.0290775 -0.997367 -0.0664271
-11.5306 -3.29656 130.25 -0.53411 -0.784163 0.315934
11.5382 -7.49923 37.4685 0.785366 -0.581857 -0.211288
21.3928 9.00453 137.846 0.412423 0.41793 0.80947
-10.4807 1.53173 136.856 -0.231751 -0.608263 0.759149
-17.6126 10.6409 137.969 -0.0338485 0.730747 0.681809
3.05691 -10.6365 1.75471 -0.986485 -0.118606 -0.113046
-17.5217 8.84446 139.024 -0.106205 0.365813 0.924609
12.4459 -1.2794 58.3293 0.633412 0.639041 -0.436367
-7.14219 8.497 108.186 -0.373817 0.8705 -0.320142
-15.8442 -2.82844 73.0324 -0.998452 0.05257 -0.0181867
2.73476 3.12202 7.58605 -0.959658 0.108435 0.25942
6.61629 2.56743 159.946 0.994134 -0.047135 0.0973398
-11.6701 -8.3074 2.74701 -0.932379 0.0179036 0.361039
1.16555 10.8351 93.6721 -0.214684 0.939759 0.266015
6.83532 -15.2739 -0.0763265 0.913719 0.347715 -0.210267
1.42013 9.14945 150.993 0.149479 0.82881 -0.539194
46.9489 1.551 131.941 -0.206134 -0.857183 0.47196
1.95713 -6.96885 88.9507 0.201153 -0.976082 -0.0824645
-65.5508 0.235836 130.027 -0.430038 0.548384 0.717177
11.8836 3.44755 103.637 0.978604 0.180668 0.0984579
12.4113 -3.47213 45.8834 0.812649 0.48151 0.328252
-10.0659 -4.72314 117.612 -0.716361 -0.692409 -0.0860099
5.91915 -3.58777 48.6357 -0.366799 0.929844 -0.0291209
12.759 8.02887 80.7794 0.871254 0.469782 -0.142202
-8.15552 3.64435 3.79838 -0.719313 0.249408 -0.64837
-56.5586 -0.606039 131.285 0.156152 -0.653865 0.740322
-10.0936 -1.94179 23.775 -0.892738 -0.347298 -0.287061
-11.3888 -6.06646 86.3677 -0.403696 -0.877839 0.257736
-2.24389 0.75847 166.171 -0.214565 -0.0692359 0.974253
-13.7956 3.5761 71.8682 -0.835169 0.521828 -0.173745
-12.1787 7.37191 114.451 -0.764298 0.516883 -0.38559
45.9369 4.27098 133.812 0.0881965 -0.214208 0.972798
-10.9913 -3.29802 115.047 -0.817289 -0.576024 -0.0153441
-47.9079 8.01376 128.248 -0.316844 0.88262 -0.347263
-26.6639 4.18671 129.263 0.170837 -0.530348 -0.830389
51.9648 0.00861939 130.273 -0.189609 -0.979375 -0.0698065
7.03967 -7.72458 37.1788 -0.504065 -0.83066 -0.236478
5.85473 -2.84598 133.944 0.143711 -0.824108 0.547899
5.50811 2.13024 163.766 0.882586 0.00135625 0.470149
-2.61867 -2.24989 146.191 0.638004 0.0921673 0.764497
-3.26474 0.154599 24.543 0.999604 0.0106113 -0.026061
4.01525 -11.0027 55.3299 -0.774887 -0.631058 -0.0362682
-8.35067 -6.19586 87.4067 0.0356428 -0.960546 0.275827
15.5307 -1.26519 80.6989 0.996786 -0.0573846 0.0558958
11.984 -9.40988 48.9011 0.891626 -0.421859 -0.164432
-16.285 7.37195 139.609 -0.0987537 0.251213 0.962881
-6.72858 -0.895781 56.4696 0.216468 0.849492 -0.48115
7.18073 -2.84699 47.872 -0.357995 0.879249 0.314263
5.57795 -1.95819 162.549 0.899554 -0.258569 0.352057
-10.4033 -3.07218 52.5603 -0.427864 0.819652 -0.380925
-7.67702 -7.72068 5.99489 -0.531976 -0.393238 0.74991
6.62205 7.27837 74.0591 -0.37556 0.900865 -0.217708
5.68444 -5.94378 85.7735 -0.388883 -0.919734 0.0534819
-0.356145 -6.40633 163.182 -0.0282405 -0.809568 0.586347
-42.4465 7.19388 133.643 -0.106677 0.457083 0.883003
-21.0198 3.84382 130.904 0.19863 -0.676577 -0.709076
-4.46903 -6.85399 80.839 0.436637 -0.863101 0.253781
12.9243 -5.20162 43.4542 0.975839 -0.218454 0.00395011
-8.27108 11.3027 93.7307 -0.258998 0.877318 0.404021
8.30547 -7.94855 35.4581 -0.272104 -0.928756 -0.251738
15.5726 -4.0468 68.2851 0.993643 -0.0832248 -0.0758104
-20.1421 10.933 131.113 0.0632726 0.889628 -0.452282
-13.579 5.64247 92.4469 -0.965663 0.207848 0.155863
9.23135 2.0469 39.6084 0.197879 0.907404 0.370758
41.5887 7.73916 126.547 0.0791934 0.584249 -0.807701
-6.09693 -7.2924 1.72366 0.155046 0.392212 -0.906714
-8.42068 -6.17244 117.191 -0.614883 -0.786279 -0.0606986
10.998 -11.4328 63.2982 0.435478 -0.900019 0.0180073
-9.76698 -5.44419 97.1566 -0.499912 -0.865161 0.0397937
0.712528 -6.22167 163.401 0.0807604 -0.813011 0.57662
1.99926 -4.14248 145.785 0.405497 0.0323504 -0.913524
8.26668 2.5694 14.0731 0.848459 0.528776 0.0226465
12.5752 5.96226 74.2987 0.654298 0.722402 -0.223671
-55.5643 4.8587 128.557 -0.380629 0.833873 -0.399722
3.47809 -3.31126 39.9666 -0.969357 0.0625309 0.237564
12.4915 2.46203 65.2045 0.637992 0.70759 -0.303782
-3.29567 9.00098 108.251 0.153837 0.959173 -0.237322
10.2165 11.7925 82.8735 0.52746 0.828647 -0.187429
-9.95256 -5.9786 125.993 -0.555135 -0.806505 0.203409
-31.9465 10.2575 128.185 -0.00645286 0.739199 -0.673456
5.41257 -3.53705 51.3522 -0.344114 0.92205 -0.177227
13.9442 8.42397 119.327 0.728957 0.591397 -0.344778
13.4022 3.01721 115.928 0.983884 -0.0982973 -0.149362
29.2681 10.9859 131.931 0.0564334 0.980566 0.187899
3.95735 8.09228 162.949 0.527191 0.643912 0.554478
-1.18413 -6.99337 161.826 -0.132297 -0.91648 0.377573
-5.88103 -3.14054 18.4083 0.464735 -0.884949 -0.0297954
15.1152 -5.46685 64.5542 0.988334 -0.0701028 -0.135211
11.3809 11.0852 88.1273 0.788882 0.608752 0.0841765
2.99121 -5.19153 4.36963 -0.921748 -0.0801634 -0.379413
7.78826 14.3537 134.311 0.0840397 0.946954 0.310188
-7.10117 -6.17733 105.831 -0.420082 -0.907308 -0.0179795
4.39309 -11.4298 55.0746 -0.764182 -0.639766 -0.082011
-15.7625 -1.32314 77.4329 -0.99989 0.00275718 0.0145452
-6.7336 11.3612 115.703 -0.20388 0.91208 -0.355729
-2.80076 -7.7802 98.1369 -0.264039 -0.964388 -0.0154661
-8.33656 -13.0351 47.4879 -0.187526 -0.94804 -0.25701
-12.5632 -7.05987 81.4444 -0.496241 -0.830826 0.251938
2.73392 -5.5707 82.8898 0.566672 -0.757093 -0.325105
79.6331 -4.66974 127.27 0.259769 0.365485 0.893835
-12.8126 0.134206 119.751 -0.942168 -0.335139 -0.00100569
0.548361 -1.37721 136.014 -0.318352 -0.636884 0.702161
-2.32254 4.18646 4.95735 0.97704 0.181502 -0.111577
0.792469 -1.82758 76.3257 -0.982762 -0.175341 0.0586047
12.519 13.0612 134.676 0.300675 0.941586 0.151694
0.833487 -7.26962 145.745 0.233135 -0.464802 -0.85417
-3.11211 -1.20993 146.445 0.739084 0.204796 0.641727
-13.3787 2.55625 67.7842 -0.781547 0.579575 -0.23082
11.7583 -0.356645 134.827 0.337544 -0.707721 0.620641
3.32699 1.8346 14.3528 -0.984471 0.166 0.0571035
8.1697 -4.79922 7.29901 0.765577 -0.333899 0.549912
-2.5291 -4.62858 151.558 0.880867 0.116419 -0.458825
-55.7159 5.04275 129.66 -0.434937 0.887292 0.153437
-43.2227 4.772 133.989 0.138451 -0.425682 0.894218
-12.6276 13.3708 128.493 -0.443442 0.895441 -0.0392884
7.25697 -2.13695 11.2219 0.920464 -0.374496 -0.111801
-14.6173 -6.82162 61.9039 -0.983764 -0.046894 -0.173232
-3.78031 9.09616 99.3293 -0.11446 0.94038 0.320287
10.502 -3.78254 4.13798 0.800846 0.0559501 0.596251
-10.0861 -4.45555 113.691 -0.751388 -0.659054 0.032623
-0.640281 9.14087 112.179 0.191504 0.931211 -0.310118
-6.40131 10.577 95.9597 -0.0672528 0.894786 0.441401
31.6404 10.6487 129.025 0.080932 0.942515 -0.324215
5.05094 9.09445 108.447 0.120856 0.950367 -0.2867
11.2812 4.57236 67.9124 0.439193 0.822839 -0.360619
-16.0772 7.16968 139.683 -0.0987537 0.251213 0.962881
52.3686 1.00663 127.73 -0.0920022 -0.722222 -0.685515
-11.4261 8.50689 114.715 -0.625172 0.658002 -0.419754
2.85077 2.27754 3.89474 -0.738065 -0.17646 -0.651246
-11.7961 -3.74289 98.1919 -0.731852 -0.677521 0.0731915
-2.13761 11.0255 156.338 -0.201303 0.973853 -0.105302
8.88089 12.8985 88.2338 0.410741 0.902388 0.130333
3.29182 -6.32431 149.579 0.687435 -0.66656 -0.288326
9.4837 1.50907 40.8346 0.175786 0.91828 0.35477
-8.88138 -7.33748 32.9537 0.209892 -0.921628 -0.326417
-7.58349 -1.59939 12.4225 -0.87799 -0.462924 -0.121799
-12.5899 0.828106 33.4471 -0.892153 0.442751 -0.0896412
-15.6511 -0.452328 75.5669 -0.98208 0.188428 0.00362079
-11.9978 1.06591 30.2836 -0.949866 0.261865 -0.170825
-5.18862 -1.11657 148.766 -0.931414 0.0932735 -0.351808
-5.18505 -8.60625 1.25449 0.150656 0.605121 -0.781749
2.67077 -7.40592 125.118 -0.191094 -0.957782 0.214795
7.18482 -0.574921 56.8423 -0.177952 0.839919 -0.512707
-13.9108 -8.82026 69.1908 -0.802311 -0.596563 0.0202275
-6.31854 9.56787 98.0418 -0.0824209 0.919088 0.385335
11.5521 6.99061 112.564 0.774624 0.522386 -0.35647
2.56119 4.64269 4.21569 -0.848976 0.206416 -0.486449
-12.1929 3.30552 100.99 -0.974626 0.202913 0.0945009
14.6285 -7.58798 64.9145 0.925686 -0.369894 -0.0792758
-67.1765 -6.82541 129.837 0.274856 -0.506126 0.817491
9.16632 14.0985 134.505 0.175658 0.958838 0.223101
-7.56675 9.12529 98.5858 -0.123288 0.916075 0.381584
2.69071 2.80787 3.93909 -0.782934 -0.144699 -0.605043
73.2372 -7.18529 129.172 -0.341489 -0.904835 0.254282
9.57514 7.23663 102.384 0.42353 0.9047 -0.0462603
-30.2824 9.57964 127.6 0.0868207 0.456186 -0.885639
-5.80498 6.87775 4.10061 -0.154365 0.670499 -0.725674
7.83722 3.85004 27.6527 0.0968995 0.994929 -0.0269574
3.88488 -9.67844 4.39369 -0.700184 -0.327081 0.634634
-4.45411 9.97933 157.857 -0.62105 0.782596 0.0429039
-60.1388 -2.09561 131.042 0.205585 -0.499693 0.841453
-54.6217 5.55686 129.789 -0.434937 0.887292 0.153437
-42.2482 4.62658 125.916 0.139143 -0.375263 -0.916415
-77.8316 -8.56097 128.623 0.0921575 -0.429119 0.898534
-13.8725 -3.31481 60.4139 -0.96472 0.13807 -0.224167
-5.24997 0.958487 39.6189 0.545107 0.748053 0.378517
4.97831 2.3389 164.419 0.696505 0.0195489 0.717285
14.3865 1.7391 91.3293 0.974098 0.0851429 0.209485
-6.71835 -5.86534 128.776 -0.117022 -0.863788 0.490078
31.8208 10.7423 131.361 0.212038 0.966076 0.147437
8.23899 -9.30415 76.7276 -0.249513 -0.923117 0.292573
67.6677 -7.23546 129.759 -0.254793 -0.460604 0.850249
2.20018 -3.2187 60.1673 -0.902833 0.36246 -0.231334
-4.8668 3.01278 30.3104 0.663975 0.747142 0.0302809
15.0208 5.43328 126.312 0.874198 -0.476871 -0.091494
-6.41092 1.16861 154.16 -0.963637 -0.205295 -0.171052
3.43389 -9.46484 53.0851 -0.887793 -0.458073 -0.0446471
2.37417 4.04745 5.85191 -0.967018 0.136506 0.215038
-10.4979 -3.18709 52.3773 -0.514196 0.793222 -0.326191
-17.4875 8.27496 139.228 -0.135161 0.244691 0.960134
14.3849 4.37456 125.079 0.897491 -0.439368 -0.0382995
8.98542 -13.2704 48.8526 0.167898 -0.961866 -0.215924
55.4491 4.85704 128.443 0.380629 0.833873 -0.399722
4.54355 -6.9983 93.939 0.283407 -0.950616 -0.12653
-12.4463 9.45006 88.4662 -0.853688 0.511933 0.0956078
4.47791 1.9393 35.5607 -0.676643 0.700417 0.227091
2.21389 10.722 155.121 0.333328 0.908365 -0.252517
-21.7386 3.1015 131.965 0.0570953 -0.935607 -0.348397
9.9459 -9.31849 77.2639 0.0778096 -0.950685 0.30024
1.03235 -3.22455 76.131 -0.972765 -0.195814 0.124036
11.3245 -3.1211 53.9398 0.629009 0.677296 -0.381598
-7.24347 2.79331 152.346 -0.898223 -0.368997 -0.238825
-5.11938 -7.82796 118.179 -0.337218 -0.941341 -0.0127185
-6.78093 3.28014 35.0063 0.225639 0.963472 0.144252
1.63455 10.4385 153.749 0.201959 0.91183 -0.357462
3.6021 3.08852 13.0038 -0.94605 0.323265 0.0221198
-6.12445 -1.23805 152.967 -0.97856 -0.108671 -0.17496
40.1305 4.9281 133.429 -0.163646 -0.612057 0.773696
-6.3259 1.22 161.622 -0.980819 -0.0780746 0.1786
-6.31015 -10.6506 67.9543 0.493075 -0.841369 0.221305
-9.79443 2.93043 138.255 -0.0998388 -0.450259 0.887299
5.19076 -0.829342 42.5299 -0.747027 0.537654 0.390998
-1.37285 13.5619 123.963 0.301539 0.936822 -0.177312
5.42962 -1.82347 149.606 0.976994 -0.0632799 -0.203664
-4.10955 -7.39166 106.935 -0.292978 -0.955503 -0.0343154
9.76439 -5.67559 127.15 0.399868 -0.84928 0.344715
5.80206 4.72495 15.7109 0.233263 0.966399 0.107989
-5.09708 11.229 94.8365 0.0316031 0.866626 0.497957
2.26574 6.80463 164.902 0.184251 0.512457 0.838713
-1.03025 -0.200002 71.8503 0.941431 0.269301 -0.202941
-13.378 -3.68822 38.5783 -0.980294 -0.196074 -0.0240533
-12.175 -3.53078 127.036 -0.801831 -0.594766 0.0576152
-6.65501 -5.2137 28.181 0.35852 -0.893841 -0.269278
19.8895 3.3289 137.698 0.286355 -0.635724 0.716837
-2.70133 -4.45848 131.776 -0.003995 -0.86294 0.50529
-4.25246 -11.3403 56.1148 0.768374 -0.638578 -0.0426553
73.8819 -7.23349 129.396 -0.186862 -0.721442 0.666786
5.2546 9.24918 142.185 0.18746 0.50424 0.842971
-78.5365 -7.99605 127.335 0.0814148 0.27482 -0.958043
11.5491 -8.53477 42.479 0.859139 -0.51062 -0.0338815
3.60263 8.57809 151.19 0.474259 0.740499 -0.476173
-6.91363 -12.7071 47.2006 0.349073 -0.869742 -0.348851
3.34241 -6.4715 46.3943 -0.952433 -0.0931503 -0.290164
7.77587 0.525327 137.165 0.448431 -0.712819 0.539257
-11.3235 -3.46299 101.924 -0.787522 -0.603413 0.125305
5.24138 -14.5582 -0.508017 0.066361 0.53352 -0.84318
5.6633 -3.00561 52.7544 -0.301591 0.889679 -0.342803
-7.58776 -10.6725 43.8966 0.432783 -0.74616 -0.505909
8.00342 13.6864 136.198 0.108993 0.930106 0.350747
4.06669 -15.2146 0.167655 -0.909639 -0.402283 0.103566
-6.92796 13.2468 89.4907 -0.176521 0.974655 0.137436
10.3002 -0.425205 23.2343 0.956542 -0.0993887 -0.274134
-26.0657 2.7119 132.004 0.0654409 -0.99011 -0.124099
-14.0345 0.667506 93.284 -0.9752 0.0561237 0.214091
47.8832 2.75712 133.161 0.0412962 -0.452434 0.890841
-7.23504 -5.92135 128.496 -0.181275 -0.885334 0.428161
4.75137 3.11058 27.5631 -0.680547 0.730037 0.0624639
14.8518 3.5673 87.3239 0.978476 0.194465 0.0690551
3.05564 -2.61815 31.6318 -0.816409 -0.550622 -0.174049
-2.74 -4.43492 56.0902 0.885795 0.417243 -0.203165
5.26929 11.8049 80.6493 -0.1975 0.893534 -0.403226
3.92186 -10.9491 56.2139 -0.768374 -0.638578 -0.0426553
-4.69895 1.81101 142.499 0.88407 0.465196 0.0448682
0.331946 -8.00639 109.518 -0.039989 -0.994659 -0.0951575
-14.4308 4.35676 80.4864 -0.959507 0.265761 -0.0933635
5.59742 5.5299 151.04 0.925342 0.23144 -0.300296
-66.8166 -4.76087 126.081 -0.332426 0.309439 -0.890921
-1.06742 -3.313 76.2303 0.926634 -0.32871 0.182483
-4.11461 -7.51908 76.1988 0.578707 -0.809789 0.0966466
15.0709 2.24473 81.9136 0.967107 0.253562 -0.0202585
7.54278 10.4418 95.8364 0.16317 0.885899 0.434233
20.5046 10.9803 131.155 -0.0632726 0.889628 -0.452282
-4.00198 -4.60862 46.9294 0.819747 0.561075 0.114929
12.5621 13.0663 126.032 0.556403 0.799901 -0.224886
11.7478 -0.152047 107.67 0.980666 -0.147223 -0.128918
1.21391 -7.24553 150.999 -0.48646 0.818306 -0.306158
35.6594 6.40461 126.972 -0.115027 -0.307354 -0.944617
4.91053 -1.03196 136.961 0.182488 -0.744265 0.64247
-42.4573 7.58967 133.375 -0.138651 0.632066 0.762409
53.5751 0.735739 127.809 -0.121753 -0.712845 -0.690672
14.5408 -0.650207 66.4346 0.965653 0.202852 -0.162377
-11.6053 -10.68 53.8473 -0.897504 -0.436141 0.0653296
-14.2304 -0.706489 91.8254 -0.949788 -0.280015 0.139622
-20.4293 8.25352 128.702 0.160385 0.20077 -0.96642
2.57763 -7.28663 92.7997 0.177604 -0.971231 -0.158639
4.18427 6.75209 148.522 -0.680561 -0.696784 0.226558
-18.6056 1.80679 134.914 -0.229415 -0.973175 0.0173225
-3.53844 0.224502 138.795 0.422633 0.861622 -0.281049
2.38271 -6.6041 68.7522 -0.782778 -0.6223 -0.00104568
-47.8258 3.00789 133.295 -0.0452785 -0.468502 0.882302
8.21018 -3.04245 8.32955 0.845835 -0.16236 0.508137
-0.416341 8.02732 106.791 0.187377 0.979462 -0.0744631
-67.7327 -9.98916 127.746 0.0539394 -0.752674 0.65618
12.8244 0.595271 135.408 0.262545 -0.709732 0.653721
13.1304 1.11186 121.003 0.961796 -0.27372 -0.0050663
0.1961 12.3141 136.552 -0.119229 0.947102 0.297964
3.2026 -9.4324 1.66755 -0.860556 0.309768 -0.404335
5.36665 2.9458 34.1367 -0.440688 0.886092 0.143648
-4.32298 -4.74649 34.0283 0.60812 -0.770217 -0.192241
-3.73844 -7.03107 2.82657 0.815019 0.23427 -0.529964
-1.23013 -0.00364554 166.332 -0.0689563 -0.11989 0.99039
-34.4184 3.53129 128.888 -0.0012133 -0.809099 -0.587671
-42.8392 2.81008 131.329 0.395813 -0.906221 0.148649
6.50102 -6.87025 111.405 0.417608 -0.899854 -0.125963
35.555 3.0006 130.106 0.123589 -0.952045 -0.279886
-3.09275 -2.01112 29.8849 0.97301 -0.192321 -0.127532
-29.1846 3.64317 129.308 0.140568 -0.725914 -0.673268
13.9052 -2.44515 61.2802 0.953463 0.208875 -0.217438
-57.646 -1.65364 130.32 0.356687 -0.869318 0.342141
-13.8837 3.68549 121.177 -0.945885 -0.322296 -0.0377642
28.0126 5.04424 128.526 -0.123269 -0.437284 -0.890835
11.8988 -4.65668 91.5425 0.557787 -0.820492 0.125166
-50.1549 5.51125 126.229 -0.188282 0.435089 -0.880481
-10.4007 -11.6957 63.4557 -0.405247 -0.912893 0.0489971
-4.94553 1.80311 164.471 -0.689153 0.0364448 0.723699
8.85598 -3.47818 1.86099 0.0154295 0.28432 -0.958605
-1.52572 11.9671 90.9792 0.423595 0.880811 0.211516
-9.33433 3.53501 63.7763 -0.146725 0.884536 -0.442796
0.985203 10.3529 115.153 -0.376267 0.86082 -0.342653
22.9375 10.7956 130.41 -0.123174 0.883391 -0.452159
-10.6411 -3.17923 47.9702 -0.550991 0.74551 0.374999
-11.6608 4.2083 109.429 -0.919574 0.268947 -0.286445
-4.91385 -7.22455 108.224 -0.334051 -0.937331 -0.0990997
-22.3227 4.11392 130.33 0.182222 -0.681176 -0.70908
-32.3337 10.7318 130.412 -0.220747 0.970443 0.0975293
15.5858 -1.00676 71.8779 0.98132 0.183388 -0.0581353
4.10636 10.177 78.8607 -0.24572 0.704418 -0.665896
23.7908 4.89063 136.806 0.429375 -0.369133 0.824244
13.0966 -3.62882 42.7101 0.992157 -0.0275145 0.121936
11.5568 -4.41617 49.1806 0.726438 0.679558 0.102419
-11.9217 -10.1681 56.6026 -0.804996 -0.584904 -0.0993384
43.8542 2.32873 131.013 -0.376077 -0.909605 0.176591
-43.2942 7.1926 126.29 -0.0536349 0.542194 -0.83854
-6.98066 2.56755 62.3959 0.190493 0.872084 -0.450757
-0.837926 12.4812 120.642 0.430972 0.861444 -0.26866
7.52552 -7.20258 33.9026 -0.452565 -0.86302 -0.224457
-3.87938 -3.43887 3.6149 0.5643 0.0869902 -0.820974
5.48063 3.26401 3.22246 -0.0241847 0.132243 -0.990922
-13.1318 -8.02609 76.9949 -0.592374 -0.775631 0.21792
-11.0184 8.45369 113.994 -0.646316 0.675771 -0.354415
14.6372 -4.85671 62.1328 0.955527 0.187162 -0.227902
-13.4786 7.60372 85.9912 -0.915925 0.400142 -0.0310978
1.33185 -3.14043 165.545 0.249009 -0.341289 0.906375
74.2736 -4.82656 128.372 -0.00730667 -0.932779 0.360375
2.9108 3.11427 8.61339 -0.958444 0.247841 0.141281
2.17153 1.6052 69.5962 -0.874435 0.452561 -0.174789
-55.9671 4.01461 127.527 -0.321159 0.666145 -0.673133
69.4924 -8.40647 129.279 -0.273482 -0.912987 0.302759
-5.37676 -11.5485 48.8404 0.842951 -0.516755 -0.14966
0.160906 10.9417 88.8008 -0.856272 0.516296 -0.015411
-8.15131 12.6499 82.5942 -0.216346 0.937107 -0.273908
-15.35 10.4176 126.244 -0.744412 0.609356 -0.273012
40.0478 9.58411 128.185 -0.10912 0.92679 -0.359378
9.83125 -3.0404 49.2709 0.281313 0.954666 0.0973431
11.6176 -10.4058 49.3975 0.95209 -0.304669 -0.0264866
-36.663 3.1789 130.148 -0.192077 -0.940544 -0.28015
15.486 0.0884801 81.0216 0.97957 0.186483 0.075275
-48.3231 1.01832 131.355 0.196724 -0.952225 0.233595
-7.11164 12.4872 81.7918 -0.0259048 0.943641 -0.329956
4.35458 0.897534 165.06 0.690605 0.014839 0.72308
12.8468 -9.66006 59.2845 0.757905 -0.641978 -0.115947
5.93062 8.42112 102.115 0.230742 0.972564 0.0296208
-17.0524 2.57917 132.18 -0.573002 -0.514536 -0.637904
9.99463 3.04461 34.9875 0.516051 0.847416 0.124807
6.80498 11.1022 94.8674 0.109131 0.889039 0.444635
9.79786 -8.35348 0.545451 -0.0453183 0.189591 -0.980817
-2.04732 10.1156 113.353 0.306375 0.902576 -0.302476
66.6738 -9.56497 127.139 -0.63969 -0.716884 -0.277262
-41.36 8.42034 127.013 -0.0925455 0.570633 -0.815974
3.7437 5.36341 74.4823 -0.725489 0.685662 -0.0594393
-2.13682 9.84983 97.5383 -0.0099987 0.955719 0.294111
-7.66389 10.4662 78.299 -0.124228 0.786496 -0.604972
4.90095 -8.09196 44.2518 -0.767888 -0.560311 -0.310482
-23.1352 10.9105 134.461 -0.22925 0.914181 0.334243
6.57498 1.72607 159.668 0.992193 -0.116965 0.0432612
-13.3459 2.21544 117.995 -0.954037 -0.29203 -0.0673236
53.023 0.203028 128.621 -0.155049 -0.78502 -0.599753
-5.5656 6.18268 9.78138 -0.499713 0.747476 0.437683
35.0412 9.04773 127.234 -0.00975335 0.351898 -0.935988
2.2023 0.256677 141.674 -0.338991 0.939782 0.0435412
-6.71665 4.34697 140.883 -0.521407 -0.516222 0.679448
-6.58466 -6.57722 99.3684 -0.35004 -0.936728 -0.00351249
-5.35043 12.9943 138.034 0.0734867 0.836945 0.542331
-12.8447 12.6902 135.722 -0.297321 0.930196 0.215256
-26.8331 8.5787 127.517 0.122154 0.234654 -0.964373
10.8508 9.09461 95.6446 0.570118 0.732595 0.371845
-1.17238 -3.49983 70.2781 0.971503 -0.233677 -0.039706
-5.63419 13.1324 137.831 -0.053959 0.885907 0.460714
6.75919 4.38839 10.2665 0.724214 0.676423 0.134037
3.5286 1.44159 64.1254 -0.767252 0.586908 -0.258578
15.5714 -0.204255 80.5176 0.993256 -0.0141865 0.115071
-1.86382 -5.66972 68.8574 0.883859 -0.467582 -0.0126534
-8.68241 -8.4776 4.84962 -0.492204 -0.425924 0.75916
-10.5207 -1.19711 56.2441 -0.455754 0.755871 -0.470051
5.03445 13.5392 88.6606 0.0342732 0.993545 0.108137
10.6453 -4.05578 2.15952 0.788929 0.388574 -0.476026
8.88844 -7.5019 33.4134 -0.209892 -0.921628 -0.326417
-5.18347 -0.718081 148.893 -0.921784 0.136178 -0.363001
4.15209 -10.8459 61.3682 -0.630017 -0.761024 0.154664
-15.3122 9.23743 124.078 -0.798916 0.484639 -0.356171
-69.6446 -8.52783 128.599 0.269734 -0.90969 -0.315766
26.8541 9.2127 135.016 0.159993 0.552604 0.817943
-19.345 2.81056 137.372 -0.248044 -0.809317 0.532429
-11.7588 -4.1173 126.769 -0.797154 -0.600936 0.058497
9.19798 -5.0456 104.799 0.579225 -0.814315 0.0372632
-41.5689 5.79013 134.046 0.170669 -0.177322 0.969241
8.81447 -6.24136 87.1801 0.0262026 -0.973143 0.228704
-9.65209 -8.94333 3.98995 -0.543511 -0.309472 0.780271
15.3794 -6.09867 69.3244 0.92557 -0.376629 0.0383417
-44.6042 4.22628 133.87 -0.0485445 -0.204527 0.977657
9.28638 7.13143 106.698 0.563262 0.822593 0.0779507
73.0278 -1.3482 126.84 -0.172883 -0.0931753 -0.980525
-11.0196 5.32369 69.3081 -0.439193 0.822838 -0.360619
1.45653 13.5037 133.7 -0.336693 0.920893 0.196452
-11.7855 13.6236 132.558 -0.375562 0.918169 0.126171
-5.31065 -7.72352 116.689 -0.328967 -0.944122 -0.0203521
13.6595 2.37683 68.2844 0.781547 0.579575 -0.23082
-1.99024 -5.56606 61.8001 0.985401 -0.169667 -0.0140564
14.827 -2.08842 86.4018 0.971833 -0.22185 0.0795249
4.76877 2.95426 29.6046 -0.663975 0.747142 0.0302809
-9.39928 7.47097 73.6571 -0.1641 0.932759 -0.320986
22.1652 5.22129 137.829 0.450651 -0.204055 0.869066
10.288 -4.0556 104.967 0.719103 -0.682774 0.129269
6.13856 -12.2919 60.0409 -0.320579 -0.940065 0.116221
12.898 -0.100228 33.3353 0.969552 0.18084 -0.165124
4.67738 9.23625 77.6955 -0.238511 0.633004 -0.736491
-1.73389 -4.54179 78.1833 0.833318 -0.488321 0.259084
4.88799 7.28185 162.709 0.705768 0.477407 0.523425
6.39782 -12.6689 48.2293 -0.654814 -0.723463 -0.218676
6.91381 14.6283 133.447 0.0494362 0.979106 0.197252
-16.9453 11.9489 133.322 -0.0905443 0.973681 -0.209159
-6.09242 -2.07841 159.148 -0.98361 -0.17617 0.0384044
4.06995 -7.32952 126.158 -0.0219207 -0.94354 0.330531
2.15175 -6.35686 61.2236 -0.975181 -0.221213 -0.00933929
14.7533 1.17477 89.7752 0.984792 -0.0370024 0.169752
15.11 -6.71128 67.6899 0.932703 -0.358733 -0.0370795
35.8393 10.1345 129.575 0.1563 0.984079 -0.0846073
-11.8268 -2.40343 102.274 -0.935759 -0.292462 0.197032
3.52339 -7.54323 102.595 0.214677 -0.976669 0.00560162
-4.05864 -1.73656 41.2172 0.892421 0.307953 0.329774
-12.3575 -1.37767 42.8908 -0.787915 0.527693 0.317379
-4.10036 5.6494 9.78332 0.806108 0.549405 0.219873
1.02026 -5.99515 152.134 -0.335269 0.320398 -0.885968
47.8214 2.84211 126.48 -0.0903217 -0.574939 -0.813196
15.6594 -1.18053 78.7335 0.99587 -0.0622182 0.0661249
-12.1057 -0.590777 112.094 -0.941298 -0.294387 -0.165208
11.5169 -10.7232 56.9616 0.735395 -0.676665 0.036311
-10.2032 -5.06414 128.108 -0.394604 -0.83724 0.378572
-23.7982 11.2598 131.535 0.0148177 0.959628 -0.28088
3.0604 9.79878 111.421 -0.253854 0.934792 -0.248437
-73.3035 -10.3188 128.929 0.317217 -0.645631 0.694647
-7.91089 -6.17334 98.0774 -0.300672 -0.952575 0.0468745
5.81737 -12.7198 52.1028 -0.691375 -0.72094 -0.0473853
-7.7776 3.37921 15.4811 -0.759439 0.648224 -0.0553031
-11.6105 -10.5973 69.1125 -0.398743 -0.908697 0.123589
9.93189 9.75163 140.361 0.260785 0.628866 0.732474
5.88791 6.78011 153.132 0.946826 0.225713 -0.229293
11.8009 -9.89296 49.66 0.937645 -0.347384 -0.0121204
-40.7966 4.20606 132.873 0.241777 -0.801025 0.547634
-2.06702 3.98668 77.2294 0.702431 0.388868 -0.596131
-7.5687 1.38054 41.2297 0.295079 0.848983 0.438356
6.07085 2.56671 3.11695 -0.0406831 0.135278 -0.989972
-3.66346 -7.02496 92.1125 -0.161402 -0.982587 -0.0920468
-3.13009 -0.223901 14.4113 0.982247 -0.0229819 0.186177
43.2197 9.1168 130.862 0.116694 0.869679 0.479626
-9.07659 6.00784 69.4023 -0.0153074 0.929063 -0.369605
-45.2334 2.09337 132.062 0.260351 -0.86119 0.436543
6.17249 9.88969 97.3795 0.112711 0.905469 0.409173
4.21519 -8.04942 122.359 0.0069941 -0.998937 0.0455605
3.74901 -2.98162 41.0297 -0.974811 0.050731 0.217185
-14.8677 -7.33619 68.8522 -0.921612 -0.38793 -0.0119487
-25.9964 8.57433 135.685 -0.376948 0.446417 0.811555
-4.21614 1.56106 3.22248 0.194993 -0.0046461 -0.980794
-10.9151 -4.17306 101.304 -0.613521 -0.782403 0.106943
42.4609 9.61555 128.51 0.155105 0.902964 -0.400748
1.65111 8.87143 150.663 0.199538 0.803044 -0.56152
15.8334 -2.64932 74.197 0.997923 0.0588042 0.0263167
23.0191 9.34971 128.507 -0.189758 0.628668 -0.754167
-7.90615 -12.8924 47.1223 0.0486222 -0.939421 -0.339301
57.9042 1.9105 127.153 0.0772309 -0.0125105 -0.996935
3.15109 -8.15282 118.848 0.132037 -0.983763 0.121562
-8.53914 10.1846 95.7888 -0.27871 0.840656 0.464348
6.27722 -1.8597 156.209 0.990415 -0.128983 0.0494176
5.83703 0.635319 151.833 0.951847 0.14986 -0.267449
59.7634 -1.16472 131.38 -0.0812392 -0.295348 0.951929
-5.46866 -11.9262 0.274426 -0.0140511 0.219742 -0.975457
75.5207 -3.81267 127.03 -0.11559 0.324945 -0.938642
2.30864 3.68174 76.0179 -0.764854 0.615334 -0.190688
-12.8509 0.169163 37.248 -0.801768 0.582429 0.133955
-66.6085 -4.94251 125.955 -0.312642 0.233136 -0.920816
8.64353 5.44444 67.9682 0.0153074 0.929063 -0.369605
2.99062 -0.973082 29.1315 -0.972276 -0.191232 -0.134569
8.32025 -5.53296 107.178 0.531447 -0.847076 -0.00515114
-62.7801 -1.64158 131.4 -0.0273664 -0.16055 0.986648
2.9961 -2.73449 10.0498 -0.864893 -0.495797 0.0783879
32.5667 6.42375 127.362 -0.075717 -0.38442 -0.920048
75.4218 -4.75836 128.459 -0.0350364 -0.586358 0.809294
2.87057 -2.5041 35.6554 -0.975352 -0.216538 0.0424344
-56.7708 1.84901 127.052 -0.172865 -0.0525288 -0.983544
-6.08302 -5.22782 130.08 -0.13076 -0.86419 0.485878
19.8179 3.31991 132.027 -0.0834705 -0.813881 -0.575005
13.1505 -0.362803 34.8156 0.925418 0.378769 -0.0116817
13.0643 0.940975 119.933 0.962094 -0.27045 -0.0350938
12.2145 1.27982 32.8772 0.767 0.641442 -0.0162331
7.83478 3.83696 30.4085 0.180598 0.983525 -0.00796288
-14.6532 0.0515674 131.914 -0.669271 -0.742988 0.00676216
48.1232 0.980675 131.034 -0.196724 -0.952225 0.233595
-8.56209 2.2588 16.0401 -0.891249 0.442679 -0.0985423
-77.579 -8.61243 128.559 0.127217 -0.592667 0.795338
0.824257 11.8384 138.049 -0.226291 0.88554 0.405722
10.9182 -9.67712 44.0294 0.789069 -0.549325 -0.274976
-74.4627 -3.1265 128.003 -0.209301 0.969421 0.128122
4.24777 8.35852 143.144 0.282203 0.727942 0.62487
4.75913 13.6052 87.5874 -0.108239 0.990968 0.0791651
68.5782 -9.91244 127.667 0.277433 -0.444937 0.851506
2.86385 -5.5135 80.3427 -0.890661 -0.386923 -0.238778
-13.9023 3.59082 122.452 -0.945885 -0.322296 -0.0377642
3.34298 10.3334 141.148 -0.0881218 0.738976 0.667944
36.5506 7.70133 133.542 0.187186 0.358089 0.914732
13.0855 -4.23451 36.5652 0.969597 -0.211948 -0.12231
-70.6492 -7.20913 127.586 -0.024505 -0.140878 -0.989724
-9.02904 3.55031 27.3248 -0.444313 0.895466 -0.0269611
11.1558 -2.66673 105.203 0.921619 -0.353382 0.160437
-3.87375 10.9111 140.585 0.0865801 0.755188 0.649766
-5.14445 -0.0515439 58.8791 0.330488 0.801122 -0.498979
-13.5599 -0.392033 127.294 -0.952324 -0.149533 -0.265929
-3.79352 -9.18987 65.7543 0.795597 -0.574623 0.191919
39.9487 3.68783 131.418 -0.0384213 -0.981773 0.186132
-10.0673 -3.94882 26.7407 -0.724342 -0.607921 -0.32521
3.90544 0.818748 140.661 -0.653804 0.755302 -0.0453799
8.52407 -6.00906 115.702 0.555763 -0.830185 -0.0438262
-75.9042 -10.8474 128.011 -0.58742 0.397901 0.704708
3.7991 2.36277 24.9673 -0.827248 0.561151 0.0277533
-10.4772 2.83155 30.0643 -0.498184 0.865247 -0.0562203
3.46859 1.47377 30.5037 -0.8724 0.486877 -0.0432282
8.77838 -5.99934 1.2596 -0.19056 0.228744 -0.954653
-9.80185 2.8787 36.2743 -0.235263 0.956713 0.171324
24.115 9.0853 136.338 0.405199 0.436726 0.803171
13.1916 -3.18171 92.5269 0.804859 -0.587503 0.0839183
-0.438866 -4.38654 131.563 -0.037567 -0.895125 0.444229
10.887 -12.1283 0.367173 -0.876548 -0.480095 -0.0342373
18.9456 7.90625 139.019 0.225341 0.242533 0.94361
-3.86493 -7.52425 98.8766 -0.241453 -0.97039 -0.00658853
2.36416 -7.02225 61.8606 -0.933693 -0.353841 0.0548996
3.16887 -5.35144 51.4221 -0.863054 0.499009 -0.0782758
35.9069 5.19772 133.807 0.243046 -0.271138 0.93135
8.07961 3.26657 35.917 -0.0242941 0.97893 0.202745
5.68105 -3.0857 19.7109 -0.46916 -0.882728 -0.0260876
13.7503 -5.39639 57.7715 0.974542 0.126267 -0.18527
-7.13371 13.8423 123.545 -0.00556322 0.930526 -0.366183
-0.596583 13.6533 128.86 0.435976 0.899126 0.0387005
43.4658 9.04044 130.923 0.197271 0.868331 0.455066
0.365814 5.74425 79.8914 -0.868407 0.0673949 -0.49125
-9.91703 -4.63276 112.904 -0.695016 -0.716124 -0.0641828
-0.874725 11.787 118.626 0.339027 0.879945 -0.332802
-25.6489 9.96196 128.485 0.0984176 0.780056 -0.617921
-1.58203 10.8287 94.031 0.214684 0.939759 0.266015
-10.1259 -8.90955 39.1422 -0.232773 -0.944959 -0.229934
2.7631 -6.28482 85.1638 0.313045 -0.93319 -0.176522
-71.1086 -4.85027 130.672 -0.311707 0.205591 0.927669
-7.98775 4.61491 140.159 -0.525162 -0.562099 0.638943
4.00086 9.20281 98.9793 0.0731408 0.889077 0.451877
-4.78655 13.9676 123.939 -0.0312073 0.970109 -0.240656
13.03 12.9723 127.095 0.619403 0.774084 -0.130893
-11.1788 -3.21779 116.696 -0.837948 -0.539931 -0.0794778
14.6113 -4.24178 82.6763 0.854885 -0.501671 0.132276
2.79962 1.71846 66.7761 -0.753926 0.608651 -0.247267
11.1011 -7.6271 36.6037 0.629513 -0.740817 -0.234315
11.6525 3.12152 106.672 0.980586 0.193925 0.0290573
2.37109 0.453992 7.01051 -0.999302 0.0112482 0.0356322
-33.6282 10.212 131.845 -0.193451 0.94219 0.273596
-29.4824 2.62077 131.722 0.0311088 -0.997642 -0.0611748
4.01723 -2.69753 27.6682 -0.768465 -0.614336 -0.179031
-9.12246 0.54669 5.53072 -0.956689 0.154331 0.246837
-1.44415 10.4108 140.771 0.033643 0.832719 0.552673
-0.293642 8.06761 105.131 0.217362 0.971795 0.0914771
7.62552 -6.56913 115.903 0.475282 -0.879817 -0.00544206
-7.1119 3.50046 152.953 0.854851 0.510945 -0.0903613
-1.81863 -7.32409 92.349 -0.112464 -0.986715 -0.117244
1.14938 -6.17603 82.395 0.309863 -0.916878 -0.251632
-13.107 2.64808 67.0886 -0.823465 0.511902 -0.244667
13.9676 -0.889455 63.0766 0.923179 0.31248 -0.223824
9.89455 9.65605 114.609 0.476536 0.773743 -0.417414
63.5258 -2.72181 127.109 -0.333412 0.0247295 -0.942457
-0.443532 10.5158 83.6381 0.841043 0.486863 -0.235821
6.88651 13.2418 121.267 0.0513475 0.980108 -0.191708
-27.2921 11.1774 130.884 -0.00131133 0.995248 -0.097359
-8.58868 1.75651 137.874 -0.252734 -0.49204 0.83308
-9.42319 -11.8106 64.7581 -0.0452383 -0.989703 0.135801
-44.5379 6.76485 133.545 -0.16016 0.520586 0.838653
7.27692 3.80641 30.5226 -0.0624981 0.997138 0.0425395
-4.34813 14.3147 125.679 0.00611469 0.986829 -0.161654
-9.8276 -1.69284 3.24891 -0.879787 0.397301 -0.26101
-53.1737 4.58583 132.454 -0.331609 0.489328 0.806594
13.1985 -5.04247 55.3625 0.925832 0.272623 -0.261748
-14.9836 3.08255 83.8154 -0.978046 0.204818 -0.0384121
-3.63088 3.01511 14.4541 0.95647 0.287407 0.050616
-13.2002 9.90926 120.337 -0.690484 0.64267 -0.331974
-69.5582 -3.65769 127.461 -0.104601 -0.147962 -0.983446
-7.67703 -12.2075 0.299429 -0.0744868 0.22249 -0.972085
-1.45961 13.6198 124.121 0.301539 0.936822 -0.177312
-11.5887 5.82728 139.793 0.065689 -0.332092 0.940957
-23.8675 5.14782 136.881 -0.429375 -0.369133 0.824244
-63.5696 1.31897 128.554 -0.312754 0.863903 -0.394787
0.335304 -9.3303 152.216 0.324532 -0.421224 -0.846906
15.6264 4.60569 139.52 0.0414224 -0.298611 0.953476
19.0893 8.63942 138.796 0.225341 0.242533 0.94361
13.2509 8.12386 85.9772 0.915925 0.400142 -0.0310979
-6.21043 -0.344369 153.29 -0.984785 0.000191278 -0.173774
5.28794 -3.96288 27.2945 -0.678288 -0.720293 -0.145273
-13.8689 -8.93911 65.2385 -0.788177 -0.614499 -0.0341677
-5.23651 0.675282 60.0065 0.3532 0.809459 -0.469068
-40.9862 6.23957 125.91 0.248566 0.0384576 -0.967851
-11.105 4.95253 106.264 -0.912259 0.397835 0.0975196
5.98749 -10.284 68.6291 -0.493075 -0.841369 0.221305
77.4695 -5.21848 127.43 -0.0935117 -0.985955 0.138381
7.06462 -12.534 59.2584 -0.0535688 -0.993208 0.103293
-6.18174 4.0212 23.6473 0.196474 0.976963 0.0833159
13.8608 12.5652 128.35 0.57265 0.80415 -0.159424
68.6788 -10.9078 126.577 -0.635681 -0.760345 0.133362
40.2428 7.85435 133.361 -0.00583725 0.558855 0.829244
-8.8015 3.66194 27.288 -0.443848 0.895544 -0.03162
10.4517 -0.719635 56.8725 0.451633 0.732004 -0.510096
11.5347 -1.12468 27.8225 0.947326 -0.141812 -0.287164
-36.8773 9.54619 131.742 -0.218532 0.939916 0.2623
13.6215 -3.90953 58.3977 0.961033 0.211802 -0.177639
-10.8103 -2.33915 132.673 -0.346335 -0.785593 0.512734
28.015 8.13696 127.33 -0.0658282 0.183577 -0.980799
7.73098 -6.26137 96.6657 0.285523 -0.958344 -0.00729091
2.38021 -3.00313 59.8024 -0.902833 0.36246 -0.231334
6.84039 8.61145 108.145 0.376701 0.867968 -0.323617
30.49 4.45621 134.81 0.197322 -0.407384 0.891685
3.46654 3.49825 3.44963 -0.175657 0.126768 -0.976255
-10.339 -6.16411 4.4028 -0.624039 -0.15473 0.76592
4.80888 -2.6063 22.1076 -0.72687 -0.681688 -0.0834336
6.12151 -8.54134 77.0067 -0.375496 -0.90131 0.215971
15.105 5.7592 125.208 0.906133 -0.421499 -0.0355152
-70.5458 -0.770067 127.016 -0.281327 0.528135 -0.801204
-6.91194 11.8981 139.426 -0.17924 0.702937 0.688296
-11.6762 3.60861 108.994 -0.960394 0.236341 -0.147601
-6.87592 -3.38294 20.1378 0.0725385 -0.988569 -0.132174
-5.65262 -3.06149 16.0427 0.485201 -0.873955 0.0279811
-1.38641 10.9174 82.2901 0.62339 0.641426 -0.447166
3.98583 5.09293 10.7938 -0.956689 0.257227 0.13631
12.8707 -8.63484 75.5551 0.599119 -0.76866 0.224093
-69.6605 -7.95448 127.851 -0.0876553 -0.512434 -0.854241
7.93284 -0.202178 10.6598 0.94926 -0.307399 0.0664156
-6.91268 -2.5905 14.7489 -0.632682 -0.768544 -0.0951465
13.4739 -2.7535 91.9814 0.910477 -0.385907 0.148685
11.7876 6.43069 98.032 0.854104 0.40242 0.329491
-9.58035 11.2515 80.3068 -0.505081 0.746743 -0.432744
2.42759 -5.89904 55.9184 -0.980894 0.173638 -0.0877325
12.4703 -0.0838414 101.259 0.9935 -0.0614349 0.0958346
-1.77268 -7.55937 123.314 0.275203 -0.94004 0.201463
-7.51605 -0.132379 57.4884 0.181517 0.853508 -0.488443
3.55818 2.56788 17.1942 -0.96829 0.249489 0.0130077
-3.34287 7.22719 77.1821 0.57389 0.327706 -0.750506
14.8292 2.02516 73.978 0.865608 0.483899 -0.128704
-13.1202 4.896 114.246 -0.961686 0.0669425 -0.265856
-1.33401 -7.68031 122.099 0.197888 -0.96871 0.149802
44.4258 2.84882 132.906 -0.195456 -0.742638 0.640535
4.3401 9.97029 156.419 0.589873 0.800152 -0.108655
3.90772 -4.80444 43.3033 -0.989909 -0.115451 -0.0821592
-11.0254 -1.32966 26.154 -0.958457 -0.101483 -0.266572
11.3554 -3.30314 102.493 0.787522 -0.603413 0.125305
-14.5346 12.2138 129.128 -0.697199 0.706997 -0.118612
-8.61869 3.49353 63.634 0.0453028 0.90067 -0.432135
9.36327 -9.24861 39.7637 0.232773 -0.944959 -0.229934
-6.0996 -0.571083 43.4215 0.535769 0.701971 0.469242
16.0027 6.30545 139.741 0.0846816 0.066778 0.994168
0.564591 -0.0186372 76.7506 -0.986652 0.0575296 -0.152339
5.54751 -7.02176 81.9005 -0.312614 -0.911489 0.26732
-9.04613 -3.55822 23.7289 -0.726453 -0.60612 -0.323859
1.18158 -8.18473 111.717 0.0579351 -0.997791 -0.0324987
13.7685 6.94073 86.6831 0.922303 0.385879 0.0213327
-6.76661 -7.39473 36.7474 0.633973 -0.748776 -0.193424
11.8672 -3.9515 125.427 0.855485 -0.515558 -0.0484269
1.07764 -1.3984 70.6405 -0.98971 0.0216646 -0.141439
3.07827 10.7601 80.3253 -0.495998 0.677721 -0.542845
13.0615 0.209469 134.801 0.355411 -0.753617 0.552942
-29.1036 10.732 132.896 -0.084133 0.929083 0.360174
-1.87912 -6.4085 84.0011 -0.383066 -0.908878 -0.16493
7.94097 10.8445 78.8517 0.105164 0.814986 -0.569858
13.3628 -4.5831 56.4349 0.937276 0.265161 -0.226281
0.81825 9.3702 98.9446 -0.073532 0.961405 0.265131
-14.7081 7.12617 120.29 -0.917878 0.275378 -0.285773
-5.9874 -7.49951 125.371 -0.0884214 -0.953229 0.289028
5.19599 3.68777 143.513 -0.997919 0.0309424 -0.0565734
22.319 10.922 130.777 -0.0880487 0.868243 -0.488264
-1.13106 -3.32855 76.5255 0.926634 -0.32871 0.182483
14.745 0.752417 89.7312 0.984792 -0.0370024 0.169752
10.275 -1.04113 44.9775 0.465768 0.748372 0.472228
-21.8194 10.1024 136.842 -0.369526 0.634983 0.678415
-8.90948 -1.93992 46.9407 -0.206501 0.823203 0.528861
11.688 -11.0211 65.0469 0.40745 -0.91033 0.0726844
-4.24436 -4.4237 49.758 0.61978 0.783929 -0.0364394
-4.29685 13.4701 88.5855 0.11875 0.989377 0.0838535
15.0521 4.61077 139.55 -0.0712171 -0.346256 0.935433
5.94076 3.46566 64.8989 -0.35178 0.849362 -0.39349
8.52353 2.66984 9.4398 0.830779 0.46661 -0.303448
12.6756 -1.00486 32.03 0.975755 0.012033 -0.218534
-4.22784 -13.1623 0.409503 0.42155 -0.261379 -0.868318
18.2191 2.15216 136.855 0.21027 -0.897313 0.388094
-11.7308 3.50212 104.94 -0.978534 0.171601 0.114124
-52.9209 3.35405 126.352 -0.103105 -0.185445 -0.977231
-3.54908 -10.4125 56.4027 0.843921 -0.533422 -0.0570789
-12.0018 6.96032 96.9433 -0.814645 0.450055 0.365793
16.8647 1.4567 135.157 0.180572 -0.982959 0.0344181
3.43765 1.14816 63.7293 -0.767252 0.586908 -0.258578
14.0391 11.772 125.791 0.702142 0.65737 -0.273609
13.936 -5.88621 81.1368 0.720218 -0.658733 0.217617
4.23134 -5.9185 160.349 0.715883 -0.676038 0.174596
15.8059 -2.43983 71.5282 0.998944 0.0448268 -0.0100336
-6.71433 8.24456 105.873 -0.298569 0.953977 -0.0280058
-62.1081 0.376556 131.464 -0.074836 0.0956409 0.992599
-4.94668 12.2239 92.9358 0.0832645 0.923054 0.375551
4.13492 -1.83547 23.0686 -0.819637 -0.570979 -0.0466704
-6.21559 -1.57632 153.761 -0.986131 -0.0989666 -0.133232
-10.5834 -6.02311 31.6998 -0.712358 -0.620039 -0.328783
8.61931 -8.66854 4.29616 0.494488 -0.452528 0.742092
6.23468 -0.488349 161.076 0.986189 -0.113304 0.120803
-9.13356 -5.06147 105.453 -0.579225 -0.814315 0.0372632
-13.4255 -0.00317621 62.597 -0.859453 0.440455 -0.259497
-3.15286 -6.77652 4.11827 0.974071 -0.0257157 -0.224776
11.822 7.28104 96.9491 0.814683 0.449915 0.365879
3.77437 -10.7347 58.5873 -0.768228 -0.639022 0.0384237
-1.61612 -7.39318 123.875 0.275203 -0.94004 0.201463
-6.27463 0.837785 41.2958 0.367963 0.81754 0.44298
2.2383 -4.95616 58.649 -0.981363 0.104289 -0.161399
-3.22841 -9.00159 49.0137 0.822516 -0.507788 -0.256163
40.268 7.72477 126.509 -0.0995643 0.44051 -0.892209
24.4098 9.65864 128.457 -0.163303 0.578899 -0.798879
6.14256 2.18571 139.469 0.513786 -0.682229 0.52018
-24.8757 11.2463 131.403 -0.0136303 0.982541 -0.185547
19.7858 10.6385 137.423 0.327045 0.778238 0.536085
-3.89188 3.42274 17.1249 0.923084 0.383265 0.0319994
-11.5809 0.845757 28.2102 -0.933237 0.282301 -0.222204
9.47208 -5.91531 126.918 0.41441 -0.836839 0.357721
14.9292 6.91151 139.806 0.0509619 0.00593626 0.998683
-11.2447 -11.26 47.7273 -0.883414 -0.45751 -0.101313
2.68377 -6.68626 51.2331 -0.974895 0.213869 -0.0619587
-2.91995 -2.39198 135.189 0.0067553 -0.866631 0.498904
-9.80855 -12.0432 46.071 -0.473108 -0.794402 -0.380912
-0.337215 2.00002 80.4292 0.46914 0.0508574 -0.881658
-16.9233 1.62595 136.054 -0.11266 -0.952822 0.281846
10.4265 1.32695 60.1293 0.23984 0.842118 -0.483026
-6.14723 3.74722 27.3312 0.199599 0.977632 0.0662949
9.92696 -5.62123 90.056 0.260893 -0.962392 0.0757383
10.8537 10.7621 139.137 0.288871 0.629798 0.721046
12.1229 -10.032 71.4549 0.398182 -0.907194 0.135831
-11.9814 1.59078 35.2174 -0.807702 0.58916 0.0225142
-4.62831 14.4691 133.308 0.0253784 0.983908 0.176867
-0.680807 0.988333 79.0223 0.973235 -0.209401 0.0946786
-10.4334 11.0004 117.812 -0.366151 0.852753 -0.372487
12.0252 -3.71228 31.4518 0.901272 -0.314182 -0.298326
-1.56137 -5.95378 82.0925 -0.309863 -0.916879 -0.251632
-9.71419 -3.55413 25.2173 -0.724326 -0.607773 -0.325521
3.7859 1.62036 34.3255 -0.873774 0.460018 0.157804
14.1529 2.87055 72.1157 0.919161 0.381143 -0.0993683
-78.0546 -7.46043 127.729 -0.254238 0.904459 -0.342516
38.4583 9.50028 130.711 0.141223 0.959457 0.243924
6.56176 14.8405 130.285 -0.180823 0.983509 -0.00349725
8.41265 -0.663459 56.4028 -0.00608829 0.854854 -0.518832
-4.32062 -8.0689 121.916 -0.0069941 -0.998937 0.0455605
71.625 -4.22035 127.578 -0.134273 -0.192609 -0.972046
8.31711 13.1783 86.6679 0.325407 0.945567 -0.00355511
0.762136 10.2996 115.264 -0.376267 0.86082 -0.342653
6.05361 -3.41528 50.5391 -0.39609 0.913444 -0.0934534
-7.85066 -6.41184 114.336 -0.578643 -0.814034 0.0502117
-4.57348 13.542 88.1239 0.108239 0.990968 0.0791651
5.78713 -12.3016 49.2623 -0.790632 -0.584562 -0.182179
78.6145 -9.17206 127.491 -0.326382 -0.62734 -0.70705
49.4746 0.571294 129.785 -0.270255 -0.954378 -0.126982
41.2885 8.67435 132.311 0.000511105 0.902337 0.431031
-2.37452 11.9057 92.2652 0.371167 0.8571 0.357231
47.9941 1.12926 128.951 -0.214145 -0.877723 -0.428655
-10.5857 -4.25107 2.27696 -0.615752 0.332269 -0.714456
3.96292 -7.71187 74.2476 -0.595289 -0.796862 0.103162
8.63553 4.78393 66.2864 -0.02136 0.897989 -0.4395
26.1749 10.8533 129.784 -0.0591494 0.919007 -0.38978
-10.8249 -11.7834 1.57887 0.959874 -0.113248 0.256548
14.9129 11.7882 128.814 0.697199 0.706997 -0.118612
-59.0238 -1.12215 127.92 0.303301 -0.615414 -0.727513
-11.7887 -2.29314 120.272 -0.902368 -0.430961 -0.00188395
-3.22895 9.73153 161.198 -0.341555 0.837677 0.426188
-9.65751 -5.56273 94.148 -0.408644 -0.911739 -0.0417498
-8.28229 -14.2083 1.03406 -0.938171 0.193777 -0.286853
9.70117 2.53396 23.4203 0.777738 0.607872 -0.160048
4.70471 -7.27015 6.99922 -0.587964 -0.506277 0.630858
-12.2833 -9.89791 57.6017 -0.756035 -0.626631 -0.189062
14.8867 1.94831 88.7005 0.987457 0.0821741 0.134817
-14.5148 -6.87657 75.4899 -0.772895 -0.602109 0.200244
50.5463 2.03812 126.922 -0.0755699 -0.711976 -0.698126
-47.5439 2.19591 127.275 0.214223 -0.804127 -0.554516
-64.8736 -3.67636 126.29 0.363394 0.240475 -0.900065
-27.6216 11.0741 130.118 0.0415134 0.925006 -0.377678
5.64412 -2.96034 2.71483 -0.279497 0.178958 -0.943322
8.64089 -4.36273 25.3305 0.352164 -0.880982 -0.315993
-15.6754 -2.30085 70.4026 -0.983088 0.138678 -0.119607
-32.5289 7.42136 127.1 0.0705779 -0.114063 -0.990963
-5.03727 -2.83091 163.076 -0.818833 -0.318451 0.4776
13.4032 -1.70224 39.2439 0.945439 0.298612 0.130293
-11.6252 -6.22396 34.5707 -0.755895 -0.598084 -0.266307
0.769989 -6.70269 125.747 -0.273897 -0.937267 0.215666
-1.33722 -0.930977 69.2967 0.946439 0.275912 -0.167705
-2.81837 11.6609 81.8554 0.516586 0.73254 -0.443309
-5.83279 5.31577 11.0367 -0.791636 0.587318 0.168433
0.170922 9.02571 112.123 -0.195037 0.930871 -0.308933
11.9295 8.83967 140.048 0.213104 0.358757 0.90878
10.5435 6.01458 70.3825 0.39831 0.866638 -0.300479
-7.22173 -4.88009 130.376 -0.165857 -0.860858 0.481057
5.99698 -6.56426 36.0186 -0.627863 -0.755092 -0.188744
9.65541 7.19979 108.998 0.63127 0.726534 -0.27138
-8.93532 3.58492 26.9851 -0.443848 0.895544 -0.03162
-10.5634 8.80449 77.1963 -0.456817 0.726738 -0.513
-39.3988 3.53457 128.63 0.0599613 -0.997791 -0.0286023
-12.0598 -3.4242 46.4806 -0.634349 0.670863 0.384116
56.1529 0.0506917 127.905 -0.173777 -0.66117 -0.729833
13.0647 0.89892 120.34 0.946709 -0.321769 -0.0143779
10.8391 6.10198 103.78 0.825317 0.557899 0.0871822
-8.36588 13.1595 86.1243 -0.325407 0.945567 -0.00355512
11.1925 -11.491 53.4833 0.805906 -0.584966 0.0912709
68.2458 -2.34466 130.587 0.240741 0.181907 0.95339
3.34486 11.286 94.3277 -0.269083 0.856167 0.441104
-44.117 3.11881 133.101 0.245305 -0.729694 0.638257
-6.79611 -9.04515 76.0761 0.37538 -0.901915 0.213635
13.2285 -0.527467 35.6581 0.925418 0.378769 -0.0116817
25.655 3.72541 135.398 0.125792 -0.709217 0.693677
-45.1141 9.13902 128.883 -0.229057 0.951199 -0.206771
-2.20286 -6.2751 58.6006 0.997042 -0.00166541 -0.0768358
28.6614 10.7959 129.39 0.0317628 0.93743 -0.346721
-12.5187 0.0495427 113.402 -0.97493 -0.203741 -0.089452
-66.889 -1.83321 126.628 -0.108903 0.0709356 -0.991518
-10.7428 0.453072 42.096 -0.493541 0.792921 0.357342
8.58707 7.97985 108.815 0.477292 0.825081 -0.302379
4.63504 1.52624 140.848 -0.738491 0.661472 -0.130712
13.6392 0.416683 127.078 0.970119 -0.154591 -0.187004
-9.29904 0.227678 4.85754 -0.983099 0.179275 0.0371178
-79.6717 -4.49368 127.155 -0.252478 0.629368 0.734949
-0.866682 -1.75339 72.2024 0.990922 0.0725618 -0.113172
-51.0877 2.65508 126.466 -0.0448797 -0.436618 -0.898527
