14.6147 -18.7069 46.224 0.990642 -0.125991 -0.0524866
14.3948 -20.2485 45.9386 0.990171 -0.139862 0.000831595
14.4559 -19.9153 46.3447 0.983187 -0.178641 -0.0378242
14.5714 -18.531 44.2732 0.998518 -0.054194 -0.00504055
14.6013 -18.2616 44.7193 0.99481 -0.0908327 -0.0458608
14.4307 -19.9295 44.5056 0.994325 -0.105521 0.0135367
14.478 -19.5749 44.8898 0.98908 -0.144857 -0.0271637
13.8928 -22.3633 45.5247 0.946321 -0.32308 -0.00981749
13.7716 -22.7179 45.1759 0.949289 -0.314404 -0.000984681
14.253 -20.9696 45.1772 0.97316 -0.229745 -0.0132776
14.1699 -21.3488 44.8236 0.97947 -0.200927 0.0163612
13.8264 -22.6169 46.9447 0.944569 -0.327842 -0.017594
13.6981 -22.971 46.5767 0.945943 -0.324039 -0.01385
14.1986 -21.2635 46.6234 0.967107 -0.253209 -0.0242687
14.1041 -21.6299 46.2462 0.974092 -0.226139 0.00256728
-15.2005 -14.0652 53.3523 -0.963949 0.264294 0.0308361
-15.3893 -14.6934 52.8223 -0.964246 0.263198 0.0309196
-14.8523 -13.1771 55.4281 -0.968107 0.243444 0.0591878
-15.0412 -13.7525 54.8621 -0.95957 0.275216 0.0589974
-14.995 -13.2803 52.8717 -0.963963 0.264808 0.0255328
-15.168 -13.8503 52.3803 -0.960902 0.27579 0.0246508
-14.6631 -12.3742 54.9005 -0.963521 0.263888 0.0446068
-14.8386 -12.9198 54.4098 -0.960325 0.275444 0.0436663
-14.6183 -11.9836 53.834 -0.967286 0.250329 0.0411369
-14.5632 -11.9179 54.5655 -0.970751 0.232411 0.0602227
-14.4928 -11.2291 53.7259 -0.983849 0.173715 0.0431675
-14.4378 -11.1991 54.3545 -0.988575 0.0909126 0.120227
-14.8988 -12.8218 52.0197 -0.965798 0.258185 0.0239777
-14.8745 -12.8004 52.631 -0.968206 0.247888 0.0336144
-14.7271 -12.0735 52.0424 -0.972496 0.232855 0.00550226
-14.6976 -12.035 52.5941 -0.982059 0.176955 0.0651684
-15.189 -13.8514 49.0094 -0.940762 0.33766 -0.0308641
-15.0958 -13.5555 49.1601 -0.959788 0.27981 -0.0226825
-15.3514 -14.4269 47.6886 -0.924607 0.378734 -0.0407743
-15.2411 -14.1122 47.9058 -0.944646 0.325946 -0.0374587
-15.2965 -14.1444 49.9255 -0.946852 0.321608 -0.00634597
-15.1852 -13.7929 50.0866 -0.962352 0.27175 0.00558142
-15.5371 -14.8826 48.3922 -0.93617 0.351273 -0.0138612
-15.4107 -14.5176 48.6311 -0.949409 0.313853 -0.0108651
-12.4979 -27.0025 61.2471 -0.6822 -0.625655 0.378364
-12.5772 -26.6155 61.7094 -0.770272 -0.535617 0.346116
-12.4372 -27.9968 59.6998 -0.623524 -0.672427 0.398823
-12.5387 -27.576 60.2301 -0.681422 -0.624669 0.381383
-12.3005 -27.2424 61.3194 -0.775996 -0.553762 0.301957
-12.3777 -26.8399 61.811 -0.85171 -0.452408 0.264418
-12.2064 -28.2584 59.6661 -0.621178 -0.691019 0.369635
-12.3193 -27.8258 60.2252 -0.774505 -0.549749 0.312919
-11.017 -30.7093 56.7468 -0.778389 -0.618143 0.109586
-10.912 -31.0949 55.8398 -0.567262 -0.76616 0.302015
-10.9744 -30.7209 57.3271 -0.88683 -0.459185 -0.0517909
-10.7841 -31.0609 56.4566 -0.799698 -0.593517 0.0906719
-11.5085 -29.6116 58.8091 -0.924107 -0.381699 -0.0182171
-11.3863 -29.9415 57.9887 -0.828885 -0.54395 0.130645
-11.4705 -29.7784 59.2378 -0.951772 -0.295511 -0.0824869
-11.3296 -30.0394 58.4376 -0.937364 -0.346086 -0.0396565
-11.7764 -28.9475 60.9321 -0.987636 -0.145772 -0.0576732
-11.6842 -29.3137 60.4596 -0.969237 -0.242246 -0.043547
-11.8971 -28.3659 62.6624 -0.997882 -0.0634984 -0.014098
-11.8575 -28.7507 62.2498 -0.992745 -0.118496 -0.0203873
-11.8445 -28.5929 60.5876 -0.972398 -0.233323 -0.00140909
-11.7416 -28.9844 60.0818 -0.95039 -0.31014 0.023897
-11.9654 -27.7916 62.2838 -0.991569 -0.126691 0.0272032
-11.9189 -28.1713 61.8505 -0.978566 -0.202452 0.0377085
-9.74763 -32.5676 53.1073 -0.315044 -0.921483 0.227193
-9.55511 -32.8124 52.324 -0.339912 -0.920838 0.191095
-9.58456 -32.4667 53.8079 -0.354443 -0.915048 0.192503
-9.34698 -32.7133 53.0962 -0.342617 -0.915961 0.208874
-10.4689 -31.7651 54.7335 -0.44733 -0.853749 0.266475
-10.3265 -32.0887 53.9312 -0.451211 -0.852953 0.26245
-10.3377 -31.6789 55.4374 -0.634381 -0.766052 0.103558
-10.1275 -31.9975 54.6213 -0.544073 -0.812771 0.208297
-11.5704 -29.7777 57.7868 -0.541899 -0.751943 0.375403
-11.6081 -29.4687 58.484 -0.871669 -0.482184 0.0877049
-11.8661 -29.5138 57.8416 -0.5109 -0.753133 0.414454
-11.8353 -29.2405 58.4288 -0.691186 -0.657214 0.300553
-11.277 -30.8898 55.76 -0.406787 -0.826112 0.389952
-11.2435 -30.6361 56.3845 -0.560382 -0.769923 0.305272
-11.702 -30.5102 56.0466 -0.445893 -0.803519 0.394381
-11.6346 -30.3048 56.575 -0.550716 -0.762501 0.339564
-11.4168 -31.2666 54.2467 -0.706167 -0.690192 0.157998
-11.6142 -30.9516 54.9098 -0.611323 -0.779046 0.139181
-11.3001 -31.5682 52.6557 -0.725196 -0.688086 0.0250766
-11.4867 -31.3337 53.2899 -0.749233 -0.661048 0.0407988
-10.9201 -31.7722 53.8703 -0.60167 -0.764506 0.231354
-11.147 -31.4102 54.5685 -0.534703 -0.816613 0.217339
-10.8043 -32.0772 52.2654 -0.688002 -0.725543 0.0154864
-11.0033 -31.863 52.9143 -0.707274 -0.706381 0.0280763
-9.57211 -32.9052 49.2389 -0.500854 -0.863559 -0.0583954
-9.25413 -33.0139 48.6267 -0.407831 -0.907461 -0.100937
-9.78395 -32.8396 50.969 -0.44871 -0.893478 -0.0188923
-9.47212 -32.9992 50.3386 -0.491907 -0.870647 -0.00091934
-10.2538 -32.5143 49.3412 -0.566051 -0.824364 0.0033129
-9.97721 -32.6588 48.7263 -0.43361 -0.89974 -0.0495081
-10.4019 -32.4379 51.079 -0.634569 -0.772791 -0.0107922
-10.1605 -32.6012 50.4841 -0.572764 -0.818885 -0.0370137
-15.6324 -18.2891 55.3427 -0.963167 0.0389961 0.26606
-15.5738 -17.6812 55.4661 -0.963158 0.0386904 0.266137
-15.9383 -19.3643 54.1037 -0.974036 -0.0188458 0.225608
-15.912 -18.8155 54.2641 -0.973973 -0.0197582 0.225801
-15.3806 -18.9047 56.1407 -0.948124 -0.0395298 0.315435
-15.3496 -18.3271 56.2823 -0.950722 -0.0121966 0.309804
-15.696 -19.9678 54.856 -0.958077 -0.0748256 0.276568
-15.6897 -19.4154 55.0408 -0.956187 -0.0886915 0.278998
-15.3005 -20.2102 55.9865 -0.934979 -0.136938 0.327204
-15.5076 -20.362 55.3213 -0.93878 -0.133079 0.317777
-14.9758 -20.8313 56.6191 -0.930307 -0.151512 0.334025
-15.1883 -20.9652 55.9711 -0.928413 -0.153363 0.338422
-14.9549 -19.1421 57.2578 -0.933669 -0.0914459 0.346266
-15.1798 -19.3052 56.6212 -0.928175 -0.0960996 0.359522
-14.6459 -19.7834 57.8836 -0.934003 -0.107956 0.340565
-14.8631 -19.9132 57.2711 -0.923251 -0.117484 0.365794
-5.88856 -11.8988 30.9045 -0.215359 0.0311825 -0.976037
-5.70734 -11.6224 30.8488 -0.344993 -0.0473779 -0.937409
-5.98655 -12.8646 30.8619 -0.013355 0.105501 -0.99433
-5.66976 -12.6346 30.8438 -0.227232 -0.00323909 -0.973835
-6.63823 -11.6509 31.1265 -0.182451 0.154767 -0.970958
-6.37444 -11.3803 31.0757 -0.387638 0.0141397 -0.921703
-6.9212 -13.0161 30.9166 -0.10466 0.198022 -0.974594
-6.46914 -12.3995 30.9734 -0.180726 0.160273 -0.970387
-7.8309 -13.1237 31.0733 -0.220375 0.215841 -0.951235
-7.63953 -13.6686 30.9022 -0.234095 0.222282 -0.946462
-8.94992 -13.924 31.2238 -0.315681 0.228566 -0.920925
-8.77904 -14.5495 31.0089 -0.319263 0.230113 -0.919304
-7.52639 -11.2762 31.4338 -0.372917 0.281474 -0.884141
-7.28166 -11.7226 31.2407 -0.195452 0.155091 -0.968372
-8.43737 -11.3581 31.821 -0.443444 0.323065 -0.836054
-8.24651 -12.0517 31.4813 -0.349741 0.279852 -0.894072
-3.24584 -29.2683 40.124 -0.0366469 -0.696154 -0.716957
-2.97184 -29.8717 40.7019 -0.031675 -0.701774 -0.711695
-4.30955 -28.6896 39.5098 0.0575124 -0.705593 -0.70628
-3.98488 -29.2176 40.0599 0.0552097 -0.701549 -0.71048
-3.1555 -28.1796 39.0833 -0.0180099 -0.688667 -0.724854
-2.85929 -28.7286 39.5932 -0.0230057 -0.684086 -0.729039
-4.19744 -27.6748 38.532 0.0779276 -0.693688 -0.716047
-3.86672 -28.1914 39.064 0.0742026 -0.689112 -0.720846
-1.2565 -25.4027 36.5423 -0.0496923 -0.627314 -0.77718
-1.04334 -25.8546 36.898 -0.0360357 -0.633172 -0.773172
-1.94081 -25.1617 36.4035 -0.0779027 -0.613998 -0.785454
-1.74613 -25.6665 36.7882 -0.0550168 -0.626917 -0.777141
-1.19416 -24.1451 35.5898 -0.0564302 -0.584874 -0.809159
-0.998822 -24.6093 35.9165 -0.0405441 -0.591429 -0.805337
-1.8291 -23.9239 35.4843 -0.0849487 -0.571067 -0.816497
-1.64653 -24.4337 35.8308 -0.0595413 -0.584644 -0.809102
-3.07814 -27.076 38.0517 -0.00518266 -0.68072 -0.732525
-2.7777 -27.6076 38.5412 -0.00802947 -0.678099 -0.734927
-4.09163 -26.6078 37.5471 0.0739175 -0.666299 -0.742012
-3.78666 -27.1314 38.0619 0.088928 -0.681544 -0.726353
-2.96904 -25.9508 37.0494 0.0100159 -0.656562 -0.754205
-2.67493 -26.4813 37.5173 0.0129034 -0.659278 -0.751788
-3.95573 -25.4912 36.5846 0.0651099 -0.643014 -0.763082
-3.67721 -26.0219 37.069 0.0805641 -0.658894 -0.747909
-4.71508 -32.4809 44.0325 -0.169092 -0.841023 -0.513896
-4.55746 -32.8463 44.6004 -0.152229 -0.858297 -0.490053
-5.6674 -32.161 43.6887 -0.0756388 -0.868296 -0.490246
-5.4619 -32.4706 44.1983 -0.0829209 -0.863033 -0.498295
-4.32621 -31.7991 42.9311 -0.140396 -0.791474 -0.594859
-4.19216 -32.1951 43.4489 -0.123059 -0.815604 -0.565373
-5.25308 -31.413 42.5073 -0.043696 -0.812407 -0.581452
-5.05463 -31.7753 43.0051 -0.0370156 -0.818986 -0.572619
-1.98726 -29.1247 39.9179 -0.0414458 -0.692772 -0.719965
-2.24457 -28.6422 39.4784 -0.0604262 -0.681471 -0.729346
-1.14668 -29.3028 40.0482 -0.0265712 -0.698593 -0.715026
-1.41277 -28.8939 39.6637 -0.0388571 -0.692897 -0.719989
-2.04664 -30.2728 41.0639 -0.00609606 -0.721507 -0.69238
-2.32799 -29.8144 40.6106 -0.0463673 -0.700675 -0.711973
-1.1649 -30.3735 41.1498 -0.00972949 -0.730296 -0.683062
-1.43983 -29.992 40.7556 -0.0314611 -0.72097 -0.692252
-3.89848 -31.0973 42.0166 -0.0872095 -0.740536 -0.666334
-3.78802 -31.5256 42.4896 -0.0814383 -0.757747 -0.647447
-4.84854 -30.5819 41.4602 -0.00310898 -0.758031 -0.652211
-4.63512 -31.0086 41.9603 0.00114662 -0.76462 -0.644481
-3.45003 -30.3135 41.1639 -0.0391734 -0.706365 -0.706763
-3.31578 -30.818 41.6659 -0.0378217 -0.714165 -0.698954
-4.50701 -29.6737 40.4884 0.0349228 -0.719693 -0.693414
-4.24616 -30.1662 41.0145 0.0359714 -0.722075 -0.690879
-7.19753 -32.9171 45.5704 -0.111542 -0.93983 -0.322921
-6.73131 -32.7429 45.0012 -0.0207769 -0.931993 -0.361881
-7.55635 -33.2911 47.0892 -0.190426 -0.958968 -0.210043
-7.10712 -33.2083 46.4787 -0.0961674 -0.959443 -0.264993
-8.10852 -32.8576 45.8061 -0.225206 -0.936303 -0.269477
-7.66937 -32.7493 45.2218 -0.0834054 -0.944944 -0.316425
-8.5039 -33.1169 47.3826 -0.307936 -0.936234 -0.169236
-8.0859 -33.1082 46.7652 -0.2128 -0.953382 -0.213961
-8.69784 -32.3894 44.0958 0.202462 -0.966579 -0.157271
-9.0773 -32.505 44.6323 -0.0242891 -0.992195 -0.122304
-8.19268 -31.9962 42.6199 0.431673 -0.886972 -0.164131
-8.60554 -32.2269 43.1484 0.209136 -0.968476 -0.135335
-7.9856 -32.2957 43.9247 0.108496 -0.951308 -0.288516
-8.39022 -32.4525 44.4638 -0.0978632 -0.960843 -0.259235
-7.49233 -31.7587 42.5531 0.287714 -0.901476 -0.323359
-7.88036 -32.0019 43.0283 0.103304 -0.945501 -0.308799
-7.20061 -32.2207 43.7711 0.066435 -0.919166 -0.388228
-7.63721 -32.4237 44.2971 -0.0910905 -0.931852 -0.351219
-6.74952 -31.5691 42.4679 0.21594 -0.872544 -0.438221
-7.16097 -31.8494 42.9236 0.062172 -0.910782 -0.408179
-6.30678 -32.1191 43.6241 0.075923 -0.888253 -0.453037
-6.76655 -32.3721 44.1266 -0.0333111 -0.908309 -0.416971
-5.88846 -31.3669 42.3798 0.182828 -0.835294 -0.518515
-6.3294 -31.6873 42.8129 0.0686139 -0.870247 -0.487813
-2.54821 -22.366 34.4586 0.0347076 -0.519443 -0.8538
-2.28138 -22.8855 34.7946 0.0518222 -0.533237 -0.844377
-3.46614 -22.0186 34.1567 0.0998189 -0.50749 -0.855856
-3.19546 -22.5333 34.5029 0.114837 -0.522587 -0.844817
-2.47174 -21.1226 33.7609 0.0298565 -0.468369 -0.883028
-2.20291 -21.6342 34.0511 0.0518571 -0.483769 -0.873658
-3.3914 -20.8348 33.5194 0.101635 -0.45252 -0.885944
-3.08772 -21.3398 33.8221 0.120087 -0.469229 -0.874873
-2.44731 -19.837 33.127 0.0102326 -0.420175 -0.907385
-2.17409 -20.345 33.377 0.0410664 -0.438821 -0.897635
-3.40182 -19.6068 32.9374 0.0993933 -0.405431 -0.908706
-3.04865 -20.1098 33.2082 0.115221 -0.418543 -0.900858
-2.47004 -18.5473 32.5572 -0.023967 -0.384988 -0.92261
-2.19364 -19.0325 32.7653 0.0141766 -0.406216 -0.913667
-3.479 -18.3634 32.4056 0.0961062 -0.371752 -0.923344
-3.07687 -18.8488 32.648 0.106538 -0.380812 -0.918494
-2.5713 -17.318 32.0491 -0.0227202 -0.382949 -0.92349
-2.25736 -17.7641 32.2261 -0.0234686 -0.382553 -0.923636
-3.62127 -17.1648 31.923 0.0774767 -0.349036 -0.933901
-3.18611 -17.6158 32.1377 0.0973006 -0.366309 -0.925392
-2.73334 -16.18 31.6056 -0.0159934 -0.35649 -0.934162
-2.39349 -16.5879 31.7547 -0.0183642 -0.355006 -0.934684
-3.74411 -16.0441 31.5097 0.0565992 -0.321809 -0.945112
-3.34632 -16.4591 31.6852 0.0788492 -0.341615 -0.936527
-1.83977 -12.6539 30.6844 -0.0497955 -0.12068 -0.991442
-2.18186 -12.2783 30.6579 -0.0548896 -0.115085 -0.991838
-0.812343 -12.7292 30.6428 -0.0476025 -0.123191 -0.991241
-1.14054 -12.3643 30.614 -0.0498694 -0.120678 -0.991438
-1.81343 -13.5877 30.8021 -0.0512533 -0.12925 -0.990287
-2.15899 -13.2598 30.777 -0.0506548 -0.129947 -0.990226
-0.842227 -13.6625 30.7644 -0.0461128 -0.131339 -0.990265
-1.16601 -13.3467 30.7383 -0.0479504 -0.129172 -0.990462
-2.8913 -15.1195 31.2331 -0.00950919 -0.320853 -0.947081
-2.53989 -15.504 31.3593 -0.010955 -0.319777 -0.94743
-3.80495 -14.989 31.1679 0.0214368 -0.278973 -0.96006
-3.48255 -15.3806 31.3038 0.058518 -0.31073 -0.948695
-3.03265 -14.0927 30.9387 -0.00424283 -0.251097 -0.967953
-2.67513 -14.4672 31.0357 -0.000371601 -0.25431 -0.967123
-3.89206 -13.9858 30.9014 0.014391 -0.237484 -0.971285
-3.57122 -14.3534 31.0001 0.0274113 -0.246719 -0.968699
-5.2116 -10.6913 30.6722 -0.308656 -0.0323674 -0.950623
-5.37334 -11.0193 30.7264 -0.251756 -0.00666539 -0.967768
-5.26377 -9.81318 30.7606 -0.398246 0.0956464 -0.912279
-5.43614 -10.0158 30.7851 -0.199922 0.259105 -0.944932
-4.62337 -10.8611 30.5723 -0.145643 -0.0556379 -0.987771
-4.81821 -11.2015 30.6093 -0.0850993 -0.0265926 -0.996018
-4.6259 -9.87785 30.5793 -0.269068 -0.00188242 -0.963119
-4.84439 -10.1482 30.6107 -0.102214 0.11464 -0.988135
-6.45719 -10.2327 31.1426 -0.439609 0.007645 -0.898157
-6.67558 -10.5409 31.2306 -0.376034 0.0509771 -0.925202
-6.60072 -9.5687 31.3932 -0.435838 0.371796 -0.819642
-6.79451 -9.63965 31.414 -0.0376778 0.767053 -0.640476
-5.78377 -10.48 30.8608 -0.377053 -0.0131651 -0.926098
-5.97483 -10.7957 30.932 -0.323803 0.0171736 -0.945969
-5.88643 -9.70988 31.0291 -0.429276 0.206095 -0.879344
-6.07233 -9.84609 31.0506 -0.168319 0.483368 -0.859083
-4.75477 -12.2911 30.675 -0.0475606 -0.0700392 -0.99641
-4.58319 -11.9918 30.636 -0.103378 -0.101081 -0.989493
-4.64422 -13.2412 30.7737 -0.0217678 -0.115831 -0.99303
-4.49187 -12.9864 30.7334 -0.0654636 -0.144905 -0.987278
-5.29447 -12.1163 30.7537 -0.172989 -0.0331855 -0.984365
-5.15152 -11.8288 30.7025 -0.278674 -0.0861089 -0.956518
-5.24413 -13.0751 30.8008 -0.0053416 -0.0204225 -0.999777
-5.05005 -12.8333 30.7665 -0.208845 -0.139172 -0.967995
-14.9882 -14.0521 42.6194 -0.973521 0.215623 -0.0759239
-15.0291 -14.0897 43.1134 -0.977775 0.202895 -0.0528133
-14.7801 -13.0018 42.3136 -0.983577 0.168159 -0.0655665
-14.8357 -13.1697 42.8204 -0.986798 0.156509 -0.0416381
-15.0305 -14.8038 41.4415 -0.967679 0.218168 -0.126491
-15.0945 -14.8251 41.9452 -0.973362 0.206018 -0.100617
-14.785 -13.7059 41.0868 -0.977079 0.17469 -0.121656
-14.8687 -13.8629 41.6089 -0.982786 0.161293 -0.090085
-14.8117 -14.8467 39.9826 -0.968558 0.188085 -0.162845
-14.7396 -14.1766 40.2574 -0.97209 0.157825 -0.173589
-14.7016 -15.575 38.7627 -0.955913 0.20768 -0.207603
-14.6262 -14.8867 39.0257 -0.960052 0.165866 -0.225366
-15.1023 -15.8968 40.3857 -0.959547 0.226483 -0.167256
-15.0189 -15.3169 40.6445 -0.96507 0.19933 -0.17002
-15.0624 -16.7173 39.2159 -0.948117 0.24653 -0.200743
-14.9705 -16.115 39.4607 -0.955931 0.207627 -0.207572
-14.8301 -12.8693 44.9978 -0.980043 0.198221 -0.014986
-14.8529 -12.9639 45.4638 -0.982062 0.188551 -0.00176332
-14.6771 -11.9353 44.7673 -0.988653 0.150086 -0.006284
-14.7071 -12.1401 45.2441 -0.990066 0.140396 0.00768065
-14.9142 -13.401 43.8061 -0.977175 0.209823 -0.0332082
-14.9415 -13.4737 44.2927 -0.98005 0.198173 -0.0151349
-14.7351 -12.3981 43.5427 -0.986691 0.160987 -0.0228939
-14.7728 -12.5918 44.0345 -0.98861 0.150431 -0.00464776
-15.3355 -15.576 42.2855 -0.957146 0.265819 -0.114945
-15.274 -15.6087 41.7939 -0.945322 0.28517 -0.158258
-15.6087 -16.0835 42.6679 -0.904297 0.402115 -0.143353
-15.5502 -16.2002 42.167 -0.851494 0.454075 -0.262248
-15.2397 -14.8345 43.4212 -0.964434 0.256261 -0.0647918
-15.1969 -14.83 42.9308 -0.956854 0.273694 -0.0975853
-15.4805 -15.4081 43.7929 -0.93099 0.355498 -0.0829391
-15.4368 -15.4638 43.2768 -0.906289 0.393268 -0.154859
-1.11036 -21.9753 34.2056 -0.0435926 -0.484463 -0.873725
-0.90627 -21.5571 33.963 -0.046057 -0.485136 -0.873225
-1.14974 -23.29 35.0075 -0.0448565 -0.534733 -0.84383
-0.93673 -22.8909 34.7412 -0.0539379 -0.537073 -0.841809
-1.70908 -21.8083 34.1514 -0.0577953 -0.481654 -0.874454
-1.49607 -21.4368 33.9312 -0.0647135 -0.483486 -0.872957
-1.76338 -23.0912 34.9278 -0.0612864 -0.528002 -0.847029
-1.53638 -22.7459 34.692 -0.0807935 -0.532412 -0.842621
-2.82623 -24.7847 36.1034 0.0251443 -0.61427 -0.788695
-2.54554 -25.3206 36.5368 0.0349707 -0.623424 -0.781102
-3.78717 -24.3482 35.6877 0.075623 -0.606049 -0.791824
-3.52825 -24.8843 36.1315 0.0866887 -0.617615 -0.781689
-2.6736 -23.5838 35.2361 0.0320156 -0.567616 -0.82267
-2.40408 -24.1161 35.6235 0.0471931 -0.581059 -0.812492
-3.6097 -23.1853 34.8751 0.0903942 -0.559962 -0.823573
-3.35467 -23.7164 35.2722 0.101683 -0.571734 -0.814113
-12.5406 -9.35977 37.2032 -0.797052 0.295515 -0.526668
-12.8656 -10.0189 37.4035 -0.871928 0.231268 -0.431575
-12.2509 -8.07724 37.2369 -0.833777 0.0774492 -0.546643
-12.5194 -8.22775 37.6627 -0.867674 0.0246826 -0.496521
-11.9472 -9.69345 36.107 -0.754685 0.340792 -0.560636
-12.333 -10.3798 36.2733 -0.829473 0.290259 -0.477205
-11.5788 -8.40574 36.2086 -0.767209 0.1792 -0.615856
-11.8863 -8.52286 36.6112 -0.837856 0.0799744 -0.540001
-10.9848 -9.14853 35.2244 -0.703039 0.38524 -0.597768
-11.1075 -8.72877 35.5568 -0.744094 0.163289 -0.647812
-10.3761 -9.72454 34.2075 -0.672015 0.375207 -0.638448
-10.4726 -9.24445 34.5915 -0.671954 0.376032 -0.638027
-11.5989 -11.0436 34.8432 -0.744276 0.358014 -0.563807
-11.517 -9.99608 35.3721 -0.731459 0.341785 -0.590044
-11.141 -11.7824 33.8586 -0.703792 0.372082 -0.605172
-10.9702 -10.6762 34.3115 -0.690561 0.351734 -0.631988
-14.4512 -16.6536 36.7264 -0.942337 0.24557 -0.227369
-14.1917 -16.3133 36.1653 -0.910301 0.270251 -0.313555
-14.9649 -17.9276 37.2258 -0.933151 0.301129 -0.196346
-14.7572 -17.7306 36.6535 -0.911346 0.320942 -0.257768
-14.6239 -16.0516 37.951 -0.954531 0.20413 -0.21726
-14.4095 -15.7746 37.3823 -0.932713 0.22487 -0.281921
-15.0429 -17.2533 38.4343 -0.949076 0.252372 -0.18858
-14.8733 -17.1276 37.8675 -0.928035 0.273605 -0.252766
-13.2406 -22.8368 62.8225 -0.968833 -0.0831481 0.233343
-13.1221 -22.8588 63.3214 -0.972517 -0.0753968 0.220286
-13.3727 -22.1014 62.4271 -0.974394 -0.0445468 0.220389
-13.2537 -22.1445 62.957 -0.976834 -0.0385999 0.210488
-13.4244 -23.5714 61.5804 -0.970577 -0.123385 0.206778
-13.3168 -23.5652 62.1228 -0.977112 -0.108912 0.18273
-13.5753 -22.7914 61.1958 -0.975333 -0.0855573 0.203484
-13.4672 -22.7999 61.7503 -0.98195 -0.0701455 0.175653
-13.2889 -26.0163 59.6837 -0.96251 -0.236344 0.133103
-13.3576 -26.1004 59.1421 -0.942574 -0.275098 0.189405
-13.0813 -26.6304 59.907 -0.95233 -0.272042 0.138057
-13.1367 -26.7511 59.3524 -0.937685 -0.299903 0.175512
-13.2619 -25.1093 61.0922 -0.969349 -0.192482 0.152688
-13.3453 -25.17 60.5456 -0.958028 -0.216675 0.187711
-13.0747 -25.7527 61.3205 -0.962406 -0.224337 0.153129
-13.1501 -25.8349 60.7849 -0.949083 -0.252086 0.18893
-12.3744 -25.9687 63.2368 -0.878053 -0.400407 0.262101
-12.3222 -26.3332 62.8319 -0.851513 -0.446398 0.275054
-12.3065 -25.244 64.481 -0.909219 -0.322748 0.262972
-12.275 -25.5853 64.1347 -0.877763 -0.393922 0.272687
-12.5727 -25.7601 63.0083 -0.840042 -0.442121 0.314416
-12.5091 -26.0885 62.6781 -0.770227 -0.536209 0.345297
-12.5272 -24.9688 64.1579 -0.887538 -0.349297 0.300448
-12.4695 -25.2991 63.9133 -0.844015 -0.429016 0.321844
-14.9502 -17.1629 57.564 -0.949587 -0.0240092 0.312583
-14.9992 -17.7986 57.3773 -0.950618 -0.0117207 0.310142
-14.5453 -16.2661 59.0727 -0.958932 -0.0773314 0.272891
-14.5963 -16.7856 58.7605 -0.959722 -0.0617117 0.274088
-15.1675 -16.4146 56.7952 -0.963624 0.0197072 0.266533
-15.242 -17.0835 56.5924 -0.964201 0.0346289 0.262903
-14.7491 -15.4276 58.4052 -0.969914 -0.0146189 0.24301
-14.8247 -15.9744 58.079 -0.970016 -0.00646482 0.242957
-15.032 -14.98 56.9992 -0.975866 0.0823915 0.202232
-14.8492 -14.8793 57.8634 -0.977488 0.0875535 0.19197
-15.1307 -14.4793 55.9191 -0.973438 0.181443 0.139631
-14.9578 -14.2334 56.8145 -0.973732 0.182011 0.136815
-15.4516 -16.1972 55.5133 -0.975344 0.0912119 0.200958
-15.2748 -15.9684 56.2572 -0.974297 0.0892285 0.206841
-15.5281 -15.7385 54.6319 -0.977719 0.164321 0.130627
-15.3817 -15.4546 55.3599 -0.977361 0.163485 0.134308
-15.8653 -17.111 53.7428 -0.979629 0.158301 0.123564
-15.7575 -16.5369 53.8706 -0.980057 0.154267 0.125258
-16.1832 -18.2853 52.6019 -0.984167 0.118051 0.132206
-16.0928 -17.7527 52.7314 -0.981013 0.152553 0.119759
-15.7952 -17.6701 54.5304 -0.975104 0.115956 0.189015
-15.7058 -17.0552 54.6575 -0.97608 0.0881739 0.198728
-16.1033 -18.7961 53.3434 -0.983271 0.0382558 0.178087
-16.0451 -18.2585 53.4863 -0.982705 0.0817923 0.166133
-15.4786 -14.7594 50.6062 -0.953147 0.301812 0.0205161
-15.3109 -14.2266 50.9593 -0.96132 0.274487 0.0228346
-15.7371 -15.4788 49.0512 -0.945932 0.324087 0.0134115
-15.5906 -15.0422 49.3334 -0.955073 0.296033 0.0141141
-15.6894 -15.5311 51.075 -0.958964 0.280672 0.0401345
-15.5245 -15.0113 51.4971 -0.963099 0.26624 0.0394443
-15.9342 -16.1569 49.5961 -0.953895 0.297873 0.0368161
-15.79 -15.7158 49.9018 -0.959704 0.278685 0.036108
-15.1335 -14.2265 44.5851 -0.968362 0.248341 -0.0245325
-15.0992 -14.1669 44.0904 -0.963577 0.263034 -0.0482964
-15.3568 -14.8355 44.9722 -0.935985 0.346821 -0.0603961
-15.3177 -14.8385 44.432 -0.930302 0.358191 -0.0789745
-15.031 -13.7218 45.7517 -0.972192 0.234059 -0.00769362
-14.9987 -13.628 45.2533 -0.968636 0.246869 -0.0282895
-15.2408 -14.3279 46.1953 -0.937873 0.34364 -0.0480161
-15.2049 -14.3173 45.6236 -0.935257 0.349353 -0.0569751
-8.5271 -33.3789 49.8128 -0.316531 -0.946893 0.0565834
-8.92141 -33.2234 50.5447 -0.294568 -0.955229 0.0277157
-8.37894 -33.318 48.3379 -0.302039 -0.942005 -0.146282
-8.75982 -33.2634 48.9946 -0.373645 -0.922486 -0.0970005
-7.49287 -33.6026 49.2988 -0.110384 -0.993654 -0.0216008
-7.86532 -33.5378 49.8808 -0.162777 -0.984494 0.0653846
-7.36917 -33.4802 47.9429 -0.168045 -0.976511 -0.134861
-7.77377 -33.4983 48.5742 -0.166981 -0.976559 -0.135829
-5.84756 -33.0611 45.5361 -0.144841 -0.900953 -0.409028
-6.06605 -32.7996 45.0083 -0.118879 -0.916205 -0.38267
-4.90166 -33.4249 45.9034 -0.199964 -0.889099 -0.411725
-5.0858 -33.0975 45.2941 -0.205575 -0.884427 -0.418961
-6.17004 -33.5365 46.9954 -0.235427 -0.912127 -0.335557
-6.42242 -33.2956 46.4373 -0.173909 -0.944985 -0.277053
-5.17747 -33.8962 47.3116 -0.207482 -0.933196 -0.293422
-5.41104 -33.6294 46.7035 -0.246342 -0.908857 -0.336592
-9.60994 -32.6977 47.0794 -0.24044 -0.967107 -0.0830171
-9.9752 -32.5979 47.6141 -0.433571 -0.899704 -0.0504908
-9.16778 -32.6175 45.5687 -0.0239407 -0.992399 -0.120707
-9.52928 -32.6255 46.0717 -0.239587 -0.966226 -0.0948951
-8.92461 -32.9157 46.992 -0.279295 -0.94615 -0.163689
-9.29397 -32.8672 47.5795 -0.410551 -0.903615 -0.12218
-8.48098 -32.6888 45.4205 -0.0926949 -0.967353 -0.235874
-8.87908 -32.7381 45.9889 -0.283792 -0.938554 -0.196414
-4.41267 -34.4745 49.7162 -0.214134 -0.972244 -0.0942756
-4.85521 -34.3996 50.1574 -0.26222 -0.96305 -0.0614385
-4.26375 -34.3418 48.4405 -0.188097 -0.971067 -0.147137
-4.65898 -34.3134 48.8054 -0.208401 -0.968875 -0.133605
-3.38598 -34.6967 49.7729 -0.177141 -0.976116 -0.125774
-3.79645 -34.6569 50.1654 -0.222977 -0.970128 -0.0955684
-3.23967 -34.5462 48.6099 -0.141372 -0.97509 -0.170919
-3.60698 -34.5428 48.9587 -0.175103 -0.973595 -0.146465
-2.45867 -34.8622 49.7993 -0.147611 -0.977776 -0.14888
-2.85115 -34.8467 50.1626 -0.186134 -0.974183 -0.127752
-2.29983 -34.6967 48.7288 -0.11148 -0.974293 -0.195768
-2.6262 -34.7157 49.0609 -0.146007 -0.974375 -0.171099
-1.61062 -34.9752 49.8004 -0.106266 -0.98151 -0.159204
-2.00054 -34.9812 50.1487 -0.135533 -0.980062 -0.145288
-1.43516 -34.7966 48.7864 -0.0803456 -0.973632 -0.213506
-1.74238 -34.8371 49.119 -0.105416 -0.975023 -0.195491
-4.10012 -34.0605 47.1781 -0.195135 -0.944688 -0.263602
-4.50154 -34.0805 47.4939 -0.149219 -0.94615 -0.287287
-3.86322 -33.5924 45.8953 -0.118374 -0.907132 -0.403855
-4.26666 -33.6717 46.1957 -0.124301 -0.907302 -0.401687
-3.12043 -34.2909 47.4788 -0.113099 -0.958261 -0.262572
-3.49502 -34.3252 47.7759 -0.122585 -0.958625 -0.256926
-2.94952 -33.8344 46.267 -0.055703 -0.914886 -0.39985
-3.32209 -33.9469 46.5806 -0.0619001 -0.915559 -0.397392
-2.14212 -34.173 46.9705 -0.030711 -0.914443 -0.403549
-2.38085 -33.956 46.4897 -0.022917 -0.917628 -0.396778
-1.31023 -34.2586 47.1023 -0.0356245 -0.910329 -0.412348
-1.55225 -34.0682 46.6934 -0.0226091 -0.914916 -0.403012
-2.24633 -34.5322 48.0475 -0.0957441 -0.953352 -0.286275
-2.50914 -34.3954 47.646 -0.0702583 -0.963271 -0.259175
-1.38357 -34.6242 48.1295 -0.0736796 -0.949845 -0.303919
-1.63729 -34.5002 47.7809 -0.0512862 -0.957577 -0.283577
-13.2004 -5.80195 58.3148 -0.949205 0.0722716 0.306248
-13.3611 -5.5805 57.7896 -0.943144 0.0565817 0.327532
-13.2235 -6.93087 58.5364 -0.953404 0.0882936 0.288486
-13.3686 -6.72536 58.0147 -0.949305 0.0748696 0.305311
-12.687 -5.24915 59.6328 -0.933244 0.0750986 0.351306
-12.8536 -5.00238 59.1314 -0.935217 0.0793043 0.34508
-12.7363 -6.49483 59.8339 -0.937267 0.106797 0.331852
-12.8888 -6.25424 59.3379 -0.934124 0.0981161 0.3432
-11.6845 -2.14009 61.2214 -0.884592 0.128895 0.448199
-11.515 -2.46436 61.675 -0.898982 0.142686 0.414091
-11.6083 -0.341493 60.7571 -0.872954 0.15705 0.46183
-11.4453 -0.779409 61.2411 -0.889035 0.166795 0.426376
-12.2532 -2.82713 60.1451 -0.906192 0.0935454 0.41239
-12.0859 -3.12428 60.6181 -0.92282 0.114313 0.36788
-12.179 -0.979134 59.7641 -0.893148 0.123887 0.432364
-12.0149 -1.40502 60.2645 -0.912185 0.139168 0.385423
-12.8198 -3.5632 58.9129 -0.922956 0.0634592 0.379637
-12.6455 -3.83323 59.4184 -0.935659 0.0842883 0.342693
-12.7669 -1.72002 58.6133 -0.906507 0.0853485 0.413475
-12.5916 -2.1312 59.1391 -0.928996 0.109217 0.353607
-13.3604 -4.24748 57.5758 -0.93863 0.047836 0.341594
-13.1886 -4.51089 58.1007 -0.943182 0.0571137 0.327331
-13.3409 -2.48437 57.3247 -0.925955 0.052965 0.373902
-13.1668 -2.88861 57.8621 -0.941299 0.0739078 0.329384
-12.1449 -4.63947 60.8638 -0.927086 0.0928476 0.363168
-12.3116 -4.37716 60.3928 -0.918521 0.0791216 0.387375
-12.2089 -6.02027 61.0653 -0.917623 0.0884125 0.387493
-12.3679 -5.75205 60.5998 -0.928433 0.110375 0.354724
-11.5772 -4.00605 61.9894 -0.906108 0.117396 0.406431
-11.7497 -3.71086 61.5427 -0.894053 0.102779 0.436011
-11.6438 -5.49096 62.2208 -0.91096 0.102978 0.399434
-11.8135 -5.20288 61.776 -0.903121 0.0912946 0.419569
-10.4747 -1.07098 63.0573 -0.813124 0.1946 0.548599
-10.2705 -1.44527 63.5073 -0.825522 0.203212 0.526516
-10.4305 0.610835 62.4575 -0.801501 0.222401 0.555098
-10.2284 0.151025 62.9479 -0.814353 0.228019 0.533701
-11.0993 -1.55198 62.1759 -0.853269 0.161584 0.495805
-10.9166 -1.9019 62.6237 -0.866808 0.172105 0.467999
-11.0361 0.187047 61.6377 -0.841991 0.189243 0.505211
-10.8596 -0.261255 62.119 -0.856282 0.196144 0.477817
-13.2704 -7.96063 58.7504 -0.955989 0.115355 0.269773
-13.3959 -7.7617 58.2383 -0.953372 0.10327 0.283579
-13.3551 -8.87888 58.9117 -0.956197 0.152332 0.249965
-13.4495 -8.68077 58.448 -0.954687 0.138545 0.263397
-12.8138 -7.62433 60.0323 -0.939444 0.133562 0.315604
-12.9455 -7.37039 59.5446 -0.937057 0.124696 0.326151
-12.9492 -8.73455 60.1764 -0.940144 0.172981 0.293609
-13.0444 -8.41267 59.7018 -0.937842 0.155478 0.310289
-13.8005 -6.51961 56.4956 -0.962601 0.0289259 0.269374
-13.6688 -5.94992 56.8812 -0.960222 0.0463947 0.275356
-14.1459 -7.06819 55.1043 -0.976725 0.00948237 0.214286
-14.0505 -6.5032 55.4988 -0.975884 0.0187101 0.217486
-13.7934 -7.59132 56.7155 -0.966694 0.0483364 0.251328
-13.6609 -7.07359 57.1039 -0.964515 0.064584 0.256009
-14.1285 -8.11466 55.3123 -0.979185 0.0285739 0.200946
-14.0283 -7.60233 55.7126 -0.978339 0.0380163 0.203491
-14.4962 -7.93993 52.7188 -0.996793 -0.0155878 0.0784914
-14.5424 -7.70542 52.1858 -0.996656 -0.0168003 0.0799709
-14.4843 -9.12096 52.6992 -0.997183 -0.00809943 0.074571
-14.5247 -8.93035 52.1896 -0.997002 -0.0101785 0.0767051
-14.3198 -7.42348 54.1664 -0.989072 -0.00295906 0.147406
-14.4004 -7.21814 53.6317 -0.988958 -0.00351792 0.148156
-14.3015 -8.49292 54.3007 -0.991992 0.0130617 0.125627
-14.3753 -8.33588 53.7631 -0.988754 -0.00830249 0.149319
-13.8292 -4.85869 56.1999 -0.953347 0.0223433 0.301049
-13.6762 -5.1148 56.7309 -0.959583 0.0370592 0.278976
-13.8425 -3.19254 55.964 -0.950516 0.0354563 0.308645
-13.6875 -3.58713 56.5074 -0.955172 0.0435808 0.292826
-14.1942 -5.41802 54.8196 -0.973048 0.00265942 0.230587
-14.0719 -5.6774 55.3535 -0.97516 0.00871866 0.221331
-14.2322 -3.80146 54.5728 -0.969429 0.0109365 0.245128
-14.1066 -4.20472 55.1226 -0.974544 0.02236 0.22308
-7.94907 -2.11065 66.4287 -0.657311 0.243843 0.71308
-8.22563 -1.68448 66.0312 -0.653345 0.240502 0.717843
-8.03716 -3.58665 66.7959 -0.661345 0.207049 0.720939
-8.30111 -3.15489 66.4319 -0.658533 0.204622 0.724199
-7.0154 -1.96187 67.1335 -0.582802 0.257473 0.770746
-7.30672 -1.52934 66.7691 -0.582302 0.257053 0.771264
-7.11426 -3.41168 67.487 -0.585422 0.216277 0.781349
-7.39379 -2.97493 67.1572 -0.584583 0.215564 0.782173
-5.28253 0.074712 67.4772 -0.420796 0.320057 0.848819
-4.9842 -0.367088 67.7828 -0.402554 0.306989 0.862385
-5.1935 1.62665 66.8913 -0.440747 0.355604 0.824189
-4.89892 1.09826 67.2651 -0.418381 0.34283 0.841085
-6.26342 -0.00172468 66.9379 -0.506227 0.319113 0.801188
-5.96189 -0.441658 67.2975 -0.495899 0.311294 0.810667
-6.18383 1.56691 66.3142 -0.513416 0.35238 0.782453
-5.87865 1.04304 66.7438 -0.502925 0.346156 0.791987
-7.23776 -0.101194 66.2774 -0.577658 0.306462 0.756566
-6.93733 -0.53902 66.6842 -0.577748 0.306533 0.756469
-7.17865 1.47873 65.6278 -0.572671 0.339187 0.746324
-6.86903 0.959976 66.1015 -0.573252 0.339537 0.745719
-8.17066 -0.235075 65.5275 -0.643624 0.284721 0.71041
-7.88372 -0.665341 65.9647 -0.649537 0.289371 0.703112
-8.13216 1.35543 64.8665 -0.633016 0.316898 0.706305
-7.83431 0.847825 65.3664 -0.639345 0.320541 0.698921
-6.04749 -1.84259 67.7268 -0.496439 0.265497 0.826474
-6.34447 -1.41148 67.4083 -0.499343 0.267801 0.823977
-6.15019 -3.26175 68.0689 -0.500053 0.22403 0.836515
-6.43888 -2.82972 67.7818 -0.497751 0.222171 0.838382
-5.06692 -1.74054 68.1921 -0.401218 0.270345 0.875178
-5.36657 -1.31456 67.9216 -0.404539 0.272824 0.872878
-5.16341 -3.12098 68.5296 -0.409741 0.233859 0.881716
-5.45915 -2.70059 68.2843 -0.401517 0.227581 0.887125
-4.13789 -2.52517 68.7668 -0.305568 0.247876 0.91934
-4.49782 -3.01585 68.7731 -0.32068 0.235652 0.917405
-3.17642 -2.42537 69.0152 -0.237312 0.261211 0.935656
-3.5171 -2.88516 69.0508 -0.25371 0.248559 0.934799
-4.06414 -1.20215 68.4058 -0.304416 0.276151 0.911631
-4.41126 -1.67024 68.4311 -0.305959 0.274957 0.911476
-3.12277 -1.15873 68.6567 -0.232923 0.281704 0.930801
-3.45009 -1.59729 68.7059 -0.237367 0.278468 0.930652
-3.38232 0.136523 68.1817 -0.244469 0.302818 0.92116
-3.09612 -0.307258 68.399 -0.232156 0.294631 0.926983
-3.32737 1.63297 67.6657 -0.263662 0.338243 0.903368
-3.05009 1.09563 67.9395 -0.24171 0.326885 0.913632
-4.3167 0.122908 67.8863 -0.321462 0.312594 0.893838
-4.02302 -0.319805 68.1393 -0.303378 0.300222 0.904339
-4.23715 1.65013 67.3393 -0.347459 0.349788 0.870012
-3.95327 1.11657 67.6549 -0.319279 0.334523 0.886654
-8.14583 -5.08557 67.0926 -0.661755 0.183956 0.726801
-8.39987 -4.65593 66.7529 -0.661213 0.183481 0.727415
-8.26284 -6.5786 67.3602 -0.657388 0.179604 0.731836
-8.51191 -6.15875 67.0305 -0.66174 0.183383 0.72696
-7.23128 -4.88584 67.7705 -0.583823 0.187809 0.78986
-7.50358 -4.45304 67.4654 -0.585367 0.189121 0.788403
-7.35442 -6.35927 68.0208 -0.577003 0.178112 0.797084
-7.62446 -5.93822 67.7274 -0.583679 0.183712 0.790929
-6.34594 -5.65803 68.5053 -0.499333 0.175894 0.848368
-6.71444 -6.21069 68.4052 -0.495268 0.179699 0.849952
-5.34039 -5.44653 68.9706 -0.414328 0.176867 0.892777
-5.71639 -5.99234 68.9038 -0.415242 0.176031 0.892517
-6.22634 -4.21179 68.2582 -0.499477 0.191143 0.844977
-6.59273 -4.75422 68.1639 -0.500208 0.190476 0.844695
-5.23167 -4.04013 68.7224 -0.40818 0.19866 0.891024
-5.60356 -4.56979 68.6664 -0.415755 0.19203 0.888973
-9.09229 -2.38996 65.3769 -0.724457 0.216905 0.654304
-8.80026 -1.81564 65.5039 -0.717491 0.225852 0.658937
-9.85424 -2.69928 64.5352 -0.784122 0.189348 0.591017
-9.59004 -2.08704 64.6799 -0.775152 0.202655 0.598389
-9.1663 -3.89502 65.7506 -0.730736 0.186108 0.656802
-8.8697 -3.30304 65.9073 -0.724423 0.194104 0.661464
-9.92158 -4.2163 64.8958 -0.791821 0.162618 0.588706
-9.65309 -3.59418 65.0755 -0.78351 0.175034 0.596217
-10.9743 -3.43735 63.005 -0.875269 0.144399 0.461577
-11.1598 -3.10948 62.5696 -0.862613 0.132069 0.488321
-11.0387 -4.94464 63.2985 -0.882284 0.125123 0.453783
-11.2221 -4.62201 62.8697 -0.871881 0.112942 0.476516
-10.3228 -2.96339 63.9392 -0.834892 0.172628 0.522642
-10.5268 -2.60406 63.5092 -0.822826 0.162425 0.544587
-10.3868 -4.47734 64.2802 -0.843107 0.149477 0.516554
-10.5869 -4.11932 63.8639 -0.832081 0.138654 0.537044
-9.02468 -0.426277 64.728 -0.70853 0.257676 0.656954
-8.76458 -0.842941 65.1786 -0.715919 0.263105 0.646712
-8.99711 1.18119 64.0685 -0.697962 0.287587 0.655853
-8.7286 0.689193 64.577 -0.705758 0.291609 0.645654
-9.78924 -0.698336 63.9023 -0.76571 0.227121 0.601751
-9.5581 -1.09606 64.3563 -0.775387 0.233841 0.586595
-9.75921 0.938517 63.2611 -0.754886 0.255385 0.604091
-9.52433 0.463441 63.7654 -0.764836 0.259979 0.589438
-8.37966 -7.97191 67.6728 -0.653474 0.234945 0.719564
-8.62622 -7.6049 67.3255 -0.658496 0.239364 0.713504
-8.48932 -9.20969 68.0741 -0.639674 0.307592 0.704418
-8.73636 -8.90062 67.7054 -0.652728 0.318891 0.687208
-7.47533 -7.7271 68.3112 -0.572685 0.236752 0.784844
-7.74623 -7.36665 68.0008 -0.579584 0.24272 0.777927
-7.58703 -8.94858 68.6818 -0.558203 0.304632 0.771757
-7.86172 -8.64143 68.352 -0.574867 0.31901 0.753499
-9.25887 -5.41142 66.0564 -0.734833 0.170197 0.656546
-8.96042 -4.81615 66.2322 -0.730452 0.17568 0.659983
-10.0039 -5.72797 65.1918 -0.798392 0.150931 0.582915
-9.73324 -5.11242 65.3951 -0.79173 0.160946 0.589288
-9.3596 -6.90932 66.3411 -0.7344 0.176316 0.655416
-9.0644 -6.32438 66.515 -0.735012 0.17555 0.654935
-10.0925 -7.20739 65.477 -0.80112 0.16224 0.576095
-9.82472 -6.61191 65.6791 -0.799035 0.165413 0.578084
-9.94525 -8.49024 66.1314 -0.799484 0.21328 0.561549
-10.1484 -8.13747 65.7061 -0.801229 0.215095 0.55836
-10.0305 -9.69271 66.6159 -0.753785 0.299261 0.585022
-10.2324 -9.39073 66.1578 -0.789015 0.334994 0.51501
-9.20278 -8.22356 66.9481 -0.731337 0.226911 0.643162
-9.42426 -7.85756 66.5642 -0.734717 0.230011 0.638189
-9.30193 -9.46827 67.3834 -0.71951 0.301078 0.625825
-9.52178 -9.15821 66.9734 -0.72803 0.308714 0.612102
-10.6869 -6.11871 64.239 -0.849063 0.129569 0.512156
-10.4379 -5.4839 64.4802 -0.842542 0.14183 0.519621
-11.3218 -6.58823 63.1823 -0.8871 0.109859 0.448313
-11.0877 -5.93747 63.4735 -0.88202 0.122069 0.455127
-10.7685 -7.56273 64.5074 -0.852599 0.14621 0.501695
-10.5207 -6.95825 64.7484 -0.850246 0.150751 0.504338
-11.4027 -7.93233 63.4459 -0.866722 0.186039 0.462799
-11.1688 -7.37395 63.7067 -0.888692 0.135823 0.437926
-11.2683 -8.99041 64.238 -0.845916 0.242936 0.474772
-11.4514 -8.69074 63.7297 -0.859037 0.263993 0.438592
-11.3327 -10.0384 64.8372 -0.817352 0.347888 0.459249
-11.5167 -9.76662 64.2884 -0.823892 0.356831 0.440312
-10.6273 -8.74638 65.225 -0.82504 0.206914 0.525829
-10.8193 -8.42078 64.7548 -0.850821 0.240249 0.467316
-10.7007 -9.87943 65.7645 -0.783509 0.338079 0.52136
-10.8924 -9.58784 65.2569 -0.801047 0.359352 0.478738
-4.31795 -5.22459 69.3422 -0.33503 0.20077 0.920569
-4.69179 -5.76336 69.3109 -0.361465 0.176719 0.915485
-3.31708 -5.01523 69.6389 -0.275776 0.259563 0.925513
-3.67244 -5.53712 69.6491 -0.344399 0.200667 0.917127
-4.22643 -3.86282 69.0737 -0.318907 0.212428 0.923673
-4.59466 -4.3781 69.0579 -0.33477 0.198751 0.921101
-3.24495 -3.70043 69.3312 -0.252147 0.227035 0.940679
-3.59435 -4.18742 69.3478 -0.2697 0.21248 0.939209
-6.5028 -7.48429 68.8599 -0.491254 0.234115 0.838964
-6.79577 -7.13326 68.5863 -0.499567 0.241151 0.832033
-6.60701 -8.70478 69.2412 -0.529781 0.340852 0.776628
-6.90767 -8.38528 68.9146 -0.496036 0.311669 0.810439
-5.4808 -7.24376 69.335 -0.451762 0.260811 0.853164
-5.79192 -6.89603 69.0773 -0.421995 0.236497 0.875208
-5.56973 -8.48949 69.7733 -0.465141 0.358425 0.809429
-5.89103 -8.15151 69.4441 -0.455714 0.35089 0.818047
-4.47918 -7.86785 70.051 -0.410459 0.337872 0.846974
-4.85754 -8.35627 70.0784 -0.3794 0.368916 0.848503
-3.44207 -7.65022 70.3886 -0.33705 0.322736 0.884442
-3.80107 -8.14261 70.4437 -0.310894 0.347431 0.884667
-4.40448 -6.58417 69.6434 -0.376374 0.293346 0.878801
-4.78114 -7.09332 69.6369 -0.406327 0.263375 0.874947
-3.38531 -6.35804 69.9768 -0.353277 0.278599 0.893072
-3.74351 -6.86631 70.0024 -0.334483 0.295932 0.894732
-8.58219 -10.3306 68.5349 -0.630476 0.350339 0.692649
-8.83272 -10.0563 68.1626 -0.638127 0.356712 0.682312
-8.64892 -11.3438 69.1002 -0.635568 0.442525 0.632633
-8.9057 -11.0842 68.6695 -0.624814 0.433552 0.649339
-7.68341 -10.0842 69.1665 -0.606202 0.407021 0.683266
-7.9641 -9.79114 68.7762 -0.558687 0.366396 0.744059
-7.75924 -11.1763 69.8083 -0.58685 0.447163 0.675021
-8.04473 -10.8834 69.3558 -0.598455 0.456785 0.658179
-6.75065 -10.6665 70.2192 -0.513618 0.441855 0.7355
-7.11554 -11.0861 70.2344 -0.47897 0.476816 0.737044
-5.69035 -10.5267 70.7413 -0.424757 0.42825 0.797611
-6.07592 -10.9645 70.7911 -0.383318 0.466773 0.796988
-6.66643 -9.50427 69.6013 -0.525374 0.419361 0.74035
-7.03303 -9.95757 69.6037 -0.515131 0.430288 0.741278
-5.61777 -9.31392 70.136 -0.463567 0.399523 0.790877
-5.99848 -9.77543 70.1669 -0.423876 0.439156 0.792131
-10.1028 -10.744 67.1857 -0.710899 0.386662 0.587465
-10.3058 -10.4623 66.7291 -0.732708 0.406756 0.545608
-10.1521 -11.6718 67.7668 -0.700228 0.409682 0.584673
-10.3617 -11.4196 67.3346 -0.70437 0.413513 0.576949
-9.38542 -10.5634 67.8928 -0.665927 0.348414 0.659659
-9.60759 -10.2844 67.4824 -0.710785 0.386714 0.587568
-9.44185 -11.5216 68.4328 -0.644872 0.425668 0.634781
-9.67104 -11.2751 68.0284 -0.652106 0.432061 0.622961
-12.2967 -7.287 61.2569 -0.917614 0.139516 0.372183
-12.4457 -7.01698 60.787 -0.918061 0.140699 0.370631
-12.4193 -8.48576 61.488 -0.914831 0.174953 0.363972
-12.5697 -8.21622 60.9767 -0.915731 0.177821 0.360299
-11.725 -6.8634 62.4328 -0.89586 0.108124 0.43098
-11.8904 -6.57836 61.98 -0.913379 0.141008 0.381911
-11.8116 -8.12478 62.7097 -0.890199 0.175801 0.420285
-11.981 -7.84157 62.2211 -0.894459 0.184941 0.407112
-11.3883 -11.0159 65.5189 -0.804869 0.370884 0.463283
-11.5728 -10.7468 64.9719 -0.809893 0.376699 0.449635
-11.4238 -11.9541 66.1847 -0.805728 0.356683 0.472841
-11.6141 -11.7001 65.6645 -0.807885 0.359193 0.467228
-10.7636 -10.88 66.3982 -0.762316 0.389609 0.516797
-10.9565 -10.5991 65.8917 -0.7686 0.396234 0.502247
-10.8061 -11.8087 67.0255 -0.758971 0.382373 0.527024
-11.0051 -11.5508 66.5457 -0.763091 0.386724 0.51782
-12.0789 -9.32984 62.813 -0.86581 0.285902 0.41065
-11.8603 -8.88319 62.9935 -0.883788 0.246012 0.397991
-12.6709 -9.67772 61.6357 -0.884462 0.307748 0.350738
-12.4684 -9.21563 61.7961 -0.908224 0.245494 0.338913
-12.1292 -10.315 63.4942 -0.842558 0.356798 0.403473
-11.9184 -9.9136 63.5995 -0.857741 0.327706 0.396093
-12.6867 -10.6135 62.4529 -0.871127 0.341401 0.352962
-12.4922 -10.1933 62.5472 -0.883153 0.314803 0.347764
-11.4244 -12.8352 66.7673 -0.817804 0.301624 0.490123
-11.625 -12.607 66.2929 -0.817425 0.301131 0.491057
-11.3862 -13.6707 67.2624 -0.829268 0.23931 0.50502
-11.5958 -13.4637 66.8239 -0.826657 0.235918 0.510863
-10.8146 -12.6665 67.5736 -0.767788 0.334054 0.546727
-11.0243 -12.4403 67.139 -0.7693 0.335844 0.543495
-10.7847 -13.4737 68.05 -0.782439 0.284638 0.553869
-11.0051 -13.2684 67.6404 -0.776217 0.277155 0.566279
-12.1729 -11.267 64.2339 -0.83658 0.362038 0.411173
-11.9676 -10.8764 64.3178 -0.845019 0.346625 0.407178
-12.7197 -11.5357 63.2261 -0.871599 0.330496 0.36206
-12.529 -11.1257 63.316 -0.874944 0.323336 0.360454
-12.1977 -12.2016 64.9405 -0.845552 0.326158 0.422685
-12.004 -11.8217 65.0337 -0.844587 0.328016 0.423176
-12.7349 -12.4591 63.9413 -0.883551 0.281864 0.37402
-12.5572 -12.0568 64.0508 -0.879074 0.292258 0.376582
-12.53 -13.2782 64.91 -0.899568 0.214379 0.380551
-12.7155 -13.0709 64.3725 -0.893363 0.20516 0.399765
-12.4513 -14.1706 65.4497 -0.914171 0.134335 0.38242
-12.6449 -13.9755 64.9435 -0.904186 0.119835 0.409983
-11.9971 -13.0323 65.8764 -0.861263 0.263424 0.434551
-12.1898 -12.8111 65.3685 -0.857565 0.258326 0.444804
-11.943 -13.8977 66.3971 -0.876141 0.192668 0.441877
-12.1437 -13.6944 65.924 -0.869178 0.183076 0.459361
-13.231 -11.8927 62.1699 -0.903094 0.292521 0.314408
-13.054 -11.4628 62.2787 -0.90326 0.292091 0.314332
-13.7156 -12.3452 61.0158 -0.930449 0.249302 0.26854
-13.5489 -11.8961 61.1704 -0.928586 0.255403 0.269252
-13.2342 -12.7935 62.8731 -0.91737 0.227072 0.326911
-13.0743 -12.3678 63.0079 -0.909528 0.250229 0.33188
-13.6984 -13.2172 61.709 -0.943471 0.168622 0.285358
-13.5576 -12.7674 61.8806 -0.935934 0.199202 0.290425
-13.4605 -13.9726 62.7397 -0.951775 0.0935369 0.292189
-13.6393 -13.8144 62.1397 -0.94449 0.0804508 0.318537
-13.3176 -14.8941 63.2991 -0.954416 0.0161743 0.298041
-13.5042 -14.7339 62.7243 -0.946119 0.00252099 0.323808
-13.0169 -13.5876 63.8675 -0.932498 0.154439 0.326491
-13.1962 -13.4015 63.3016 -0.923326 0.139563 0.357759
-12.9081 -14.4995 64.419 -0.941036 0.069465 0.331099
-13.0946 -14.3188 63.8804 -0.931721 0.0551297 0.358967
-13.1821 -10.223 60.6376 -0.904478 0.316006 0.286459
-13.0244 -9.73731 60.6764 -0.926341 0.2456 0.285611
-13.6321 -10.7615 59.6092 -0.927176 0.290644 0.236371
-13.4816 -10.352 59.7268 -0.936571 0.258707 0.236445
-13.1997 -11.023 61.4183 -0.898626 0.318335 0.301886
-13.0231 -10.5836 61.5026 -0.907818 0.294143 0.298909
-13.6815 -11.5152 60.2965 -0.922463 0.294427 0.24975
-13.5093 -11.0719 60.4357 -0.930504 0.269522 0.248031
-10.1657 -12.508 68.3013 -0.721825 0.381604 0.577362
-10.3869 -12.2871 67.8924 -0.708934 0.367998 0.601657
-10.14 -13.3132 68.8404 -0.77113 0.362035 0.523727
-10.373 -13.0926 68.3921 -0.733161 0.315649 0.602363
-9.46193 -12.3722 69.0187 -0.684486 0.45913 0.566284
-9.7017 -12.139 68.5801 -0.645903 0.420744 0.637011
-9.44278 -13.2002 69.6534 -0.69744 0.411337 0.586839
-9.69288 -12.9618 69.1881 -0.698217 0.412169 0.585329
-11.0854 -16.2174 68.9466 -0.882984 0.220665 0.414302
-11.3146 -15.9771 68.3467 -0.876168 0.21267 0.432552
-10.9238 -17.2036 69.7737 -0.874812 0.20232 0.440194
-11.1715 -16.9066 69.1217 -0.88435 0.211287 0.416273
-10.4871 -16.1059 69.9728 -0.81942 0.276514 0.502086
-10.7406 -15.8145 69.3815 -0.829181 0.284769 0.481005
-10.3093 -17.1536 70.7925 -0.805299 0.253208 0.536078
-10.5842 -16.8057 70.1899 -0.82207 0.263785 0.504598
-9.55934 -14.6887 70.4473 -0.70614 0.358599 0.610551
-9.28475 -14.9809 70.9247 -0.694187 0.350378 0.628761
-9.64554 -13.7972 69.8075 -0.70699 0.372879 0.600938
-9.38484 -14.0527 70.2691 -0.703614 0.36975 0.606805
-10.2336 -14.7832 69.6089 -0.77889 0.316163 0.541638
-9.97681 -15.0591 70.1297 -0.772052 0.310015 0.554821
-10.3212 -13.9117 68.9631 -0.779611 0.32503 0.535315
-10.0769 -14.1573 69.4649 -0.777524 0.322608 0.539796
-12.0703 -16.7809 66.894 -0.931955 0.0788905 0.353886
-12.2495 -16.6203 66.3934 -0.929154 0.0751662 0.36197
-11.9348 -17.6439 67.4623 -0.940955 0.0866352 0.327259
-12.1204 -17.4804 66.913 -0.931676 0.0740719 0.355659
-11.6153 -16.4417 67.8826 -0.917507 0.154474 0.366496
-11.8167 -16.2592 67.3522 -0.895417 0.128383 0.426316
-11.4686 -17.3515 68.6129 -0.92887 0.140281 0.342815
-11.6832 -17.127 67.9737 -0.918432 0.126056 0.374958
-10.8599 -14.9117 68.6684 -0.831951 0.265874 0.487
-10.6193 -15.1612 69.2169 -0.832657 0.266704 0.485337
-10.9491 -14.0707 68.0936 -0.78745 0.230052 0.571838
-10.7186 -14.2882 68.5585 -0.829244 0.281669 0.482717
-11.4324 -15.1199 67.7409 -0.837691 0.17464 0.517469
-11.2104 -15.3248 68.233 -0.875608 0.217766 0.431148
-11.5291 -14.2946 67.2897 -0.832578 0.186944 0.521407
-11.3124 -14.4894 67.7114 -0.837322 0.192555 0.511678
-8.68216 -12.2666 69.7567 -0.604936 0.475703 0.63856
-8.94531 -12.0144 69.302 -0.621972 0.492334 0.608899
-8.68059 -13.1091 70.3659 -0.609234 0.458024 0.64734
-8.94869 -12.8628 69.9387 -0.609875 0.458667 0.64628
-7.81587 -12.1688 70.4298 -0.538172 0.446493 0.714853
-8.10029 -11.8889 70.0073 -0.578731 0.486303 0.65466
-7.85376 -13.0615 70.9944 -0.511439 0.476466 0.715129
-8.12965 -12.7928 70.6064 -0.525459 0.491937 0.694184
-4.59 -10.3663 71.1288 -0.337613 0.409824 0.847385
-4.97966 -10.8333 71.218 -0.299225 0.444663 0.844239
-3.50995 -10.1685 71.3924 -0.275586 0.388707 0.879181
-3.87666 -10.6576 71.5099 -0.241337 0.419518 0.875078
-4.53929 -9.12136 70.5583 -0.379612 0.377397 0.84467
-4.91998 -9.59821 70.6212 -0.33765 0.417722 0.843505
-3.48275 -8.90997 70.8612 -0.311631 0.355194 0.881319
-3.84261 -9.4003 70.9485 -0.275585 0.388693 0.879187
-6.85819 -12.1249 71.0399 -0.464799 0.443512 0.766328
-7.16228 -11.7843 70.6461 -0.482122 0.460538 0.745294
-6.97024 -13.1358 71.5754 -0.413103 0.4396 0.797557
-7.2359 -12.778 71.2116 -0.451056 0.491164 0.745189
-5.80878 -12.1213 71.5649 -0.358828 0.432279 0.827271
-6.13672 -11.7246 71.2002 -0.384888 0.455357 0.802815
-5.96539 -13.415 72.1559 -0.32708 0.404205 0.854188
-6.26459 -12.8793 71.7684 -0.356372 0.441928 0.823225
-8.38365 -15.9958 72.2902 -0.558222 0.370006 0.742619
-8.69926 -15.6301 71.8482 -0.595942 0.384125 0.705196
-8.17519 -17.2469 73.0135 -0.516777 0.331599 0.789293
-8.50929 -16.8093 72.5863 -0.563105 0.347062 0.749974
-7.57432 -15.9168 72.7656 -0.436722 0.385588 0.81277
-7.91865 -15.5548 72.3863 -0.487446 0.401334 0.775453
-7.34218 -17.2475 73.4648 -0.384215 0.345134 0.856307
-7.70522 -16.7954 73.0967 -0.438893 0.36218 0.822313
-6.50592 -16.6878 73.5328 -0.309376 0.335878 0.889648
-6.73371 -17.2399 73.6824 -0.254634 0.382006 0.888388
-5.51208 -16.4832 73.7019 -0.206968 0.337341 0.918349
-5.76044 -17.1145 73.8945 -0.165665 0.371095 0.913698
-6.79409 -15.3003 72.8127 -0.359501 0.384426 0.85028
-6.98348 -15.8168 72.984 -0.318744 0.427357 0.846031
-5.86129 -14.8834 72.9088 -0.245093 0.413114 0.877078
-6.06817 -15.54 73.1688 -0.227773 0.432015 0.87263
-9.83638 -16.0541 70.8785 -0.752133 0.312873 0.580005
-10.109 -15.7284 70.329 -0.769054 0.323264 0.551413
-9.64604 -17.1657 71.673 -0.728872 0.284809 0.622599
-9.93962 -16.7795 71.1249 -0.755937 0.297298 0.583244
-9.13708 -16.0281 71.6561 -0.666461 0.344068 0.661398
-9.42964 -15.677 71.1566 -0.692807 0.356296 0.626954
-8.93806 -17.2069 72.4143 -0.633688 0.310217 0.708664
-9.25024 -16.7915 71.9261 -0.671423 0.324374 0.666313
-8.04585 -14.5221 71.7485 -0.508009 0.424422 0.749528
-7.74141 -14.8079 72.1056 -0.48642 0.412218 0.770372
-8.12608 -13.6382 71.1706 -0.518861 0.450657 0.726424
-7.8295 -13.8999 71.5362 -0.505302 0.438981 0.742944
-8.83163 -14.6053 71.1632 -0.614738 0.396472 0.681841
-8.5387 -14.9033 71.5872 -0.595666 0.385526 0.704664
-8.91399 -13.702 70.5422 -0.619834 0.417091 0.664712
-8.63536 -13.9624 70.9589 -0.611749 0.410438 0.676242
-2.38415 -4.85062 69.8731 -0.273829 0.267645 0.923788
-2.70602 -5.34045 69.9154 -0.284703 0.259292 0.922882
-1.54945 -4.74407 70.0547 -0.213998 0.272781 0.937974
-1.83158 -5.19789 70.1207 -0.219033 0.269415 0.937784
-2.32882 -3.59217 69.5424 -0.208428 0.274284 0.93879
-2.64581 -4.03841 69.58 -0.271404 0.226824 0.935356
-1.50641 -3.53453 69.6974 -0.164911 0.306093 0.937609
-1.78503 -3.95056 69.7695 -0.214037 0.274167 0.937561
-1.72807 -2.37674 69.312 -0.157077 0.26832 0.950437
-1.48119 -2.76262 69.4641 -0.165348 0.273659 0.947508
