-20.5084 104.128 13.6326 -0.206476 -0.82492 0.52619
5.74852 -54.0206 177.535 0.691584 0.12811 0.710845
-4.7232 -49.7468 119.064 -0.0301683 -0.85893 -0.511204
-11.5035 -18.6356 164.928 -0.776384 -0.0146509 0.63009
-28.9439 15.1207 128.01 -0.965713 -0.242543 -0.0925805
-2.33015 114.689 165.732 -0.678798 0.509757 0.528565
6.21919 -102.771 156.753 -0.742712 -0.314573 -0.59112
-12.4646 -6.80597 91.9496 0.142369 0.987031 -0.0741698
7.61311 -63.6293 140.165 0.675526 -0.535052 -0.50733
-7.53716 39.9032 167.246 -0.415005 -0.220026 0.882813
-7.19668 117.742 125.089 0.189084 0.933802 -0.303744
-26.1059 -9.7108 135.029 -0.960252 0.278659 0.0163058
25.2217 58.4138 157.464 0.807131 -0.283469 0.517866
-17.837 -7.35978 96.7935 -0.298174 0.951053 -0.0811807
-15.5055 107.863 12.4147 0.942119 -0.252478 0.220605
31.13 26.6705 124.336 0.975425 -0.156507 -0.155088
-6.99006 -86.7866 177.631 -0.689448 0.269341 0.672397
15.0369 -19.2927 33.3819 0.10708 -0.993902 -0.0263139
5.64269 118.461 128.361 -0.34565 0.884478 -0.31341
-19.0703 72.9254 112.963 0.17797 -0.642942 -0.744951
9.80505 -104.023 175.424 0.988987 -0.046031 0.140666
5.30114 37.5466 97.2054 0.188098 0.227977 -0.955325
8.23158 -110.875 142.925 0.87168 0.0497881 -0.487539
-9.47896 -104.279 177.311 -0.985145 0.00851576 0.171515
20.9615 118.091 17.6292 0.790052 0.543726 -0.283161
-2.57401 -43.737 101.401 0.258701 -0.927397 -0.270199
26.0798 99.5837 160.604 0.800658 0.48129 0.356802
23.8985 17.2241 109 0.887859 -0.141952 -0.437672
-32.0767 84.2882 123.142 -0.9698 -0.21755 -0.110268
-28.95 98.8009 90.3683 -0.994375 0.102613 -0.0262279
-1.27746 -112.172 137.035 0.249456 -0.773583 0.582529
-19.1883 113.491 14.0657 -0.454245 0.683744 -0.5711
-4.60872 -60.6673 179.355 -0.599642 0.0593081 0.798068
-13.1081 -8.76576 54.8757 0.517254 0.833359 0.194838
10.8395 78.9188 175.234 0.173478 0.0377895 0.984112
-24.6738 -32.2882 140.921 -0.917846 -0.244562 0.312648
16.5302 51.6538 163.573 0.689876 -0.248344 0.679997
-27.7436 89.7697 95.8159 -0.82243 -0.521098 -0.228178
-18.3773 117.472 45.309 0.752964 0.65802 0.00748724
-19.6152 -16.8566 22.4416 -0.964561 -0.261336 0.036396
-18.3775 106.505 63.0979 0.259845 -0.956954 -0.129306
10.0338 -94.1723 170.838 0.968968 0.0519661 0.241663
22.2146 113.813 139.421 0.779932 0.625056 0.0317813
22.7889 -37.7428 139.933 0.812267 -0.479088 0.33271
8.85333 63.5163 110.964 0.016033 0.491005 -0.871009
14.3123 12.8369 160.812 0.49441 0.0159681 0.869082
-13.6544 -31.0993 1.66221 0.272577 -0.759271 0.59094
-15.8106 17.249 100.024 -0.571931 -0.0749154 -0.816874
8.65144 64.1464 173.311 0.208666 -0.322024 0.923449
10.0898 -80.4155 168.594 0.993696 0.0224216 0.109841
12.4306 -9.20399 74.1239 -0.697338 0.714822 -0.0524399
10.4741 -61.7303 141.153 0.782606 -0.531099 -0.324748
-27.5067 -24.2717 139.997 -0.948455 -0.182644 0.258987
4.23287 23.1096 94.3189 0.295594 0.0460098 -0.954205
-26.1106 106.599 98.7912 -0.811706 0.57949 -0.0729617
14.9822 109.756 159.899 0.276175 0.736401 0.617609
-20.0341 -15.248 62.8251 -0.987382 0.0785165 0.137523
-25.2983 -18.1379 146.291 -0.905223 0.11501 0.409077
-11.5904 -112.588 162.739 -0.967048 0.0114277 -0.254339
-14.6257 -23.3812 63.0445 0.400464 -0.892404 -0.20795
-5.73492 67.3716 112.623 -0.0288212 0.332893 -0.942524
8.78862 -25.0775 0.185842 0.248037 0.0258152 -0.968407
0.38167 6.69018 94.2899 0.0741779 -0.0132108 -0.997158
-4.97569 -122.655 129.065 0.731146 0.641176 -0.233063
-29.8424 36.1052 145.029 -0.904283 -0.0751144 0.420274
10.78 -68.2862 165.495 0.962748 0.024128 0.269321
-13.618 -47.5799 115.679 0.0149305 -0.964926 -0.262098
0.353206 17.9485 93.8118 0.0985381 -0.0698237 -0.992681
3.14052 87.5395 110.477 0.550577 0.762653 -0.33945
-0.972327 -54.346 181.509 -0.299793 0.147631 0.942512
31.6231 91.9333 112.806 0.976187 -0.0628043 -0.20764
26.6905 -13.3336 137.294 0.966692 0.145372 0.21065
-19.8964 -44.2595 117.467 -0.625369 -0.766899 -0.144151
21.3971 8.8357 153.951 0.829958 -0.0922617 0.550143
-4.7423 -42.9803 99.9347 0.00177204 -0.737647 -0.675185
-10.5167 -14.9634 5.12345 0.788457 0.0485874 -0.613168
-11.0742 -24.3975 165.376 -0.802822 0.00876111 0.596155
13.2727 -58.7966 153.935 0.978236 -0.190494 0.0822603
22.7562 -0.223485 149.706 0.930746 -0.0835723 0.355989
-20.5707 45.8994 104.995 -0.485131 0.245133 -0.839379
17.0549 116.919 146.03 0.423858 0.871796 0.245594
27.5515 15.8157 118.271 0.9514 -0.209029 -0.226152
-16.0869 -8.79848 81.8391 -0.332384 0.943125 0.00594203
20.4237 -19.1361 58.4193 0.934178 -0.342059 0.101525
28.7236 105.926 117.693 0.847021 0.523889 -0.0899787
-10.94 -14.473 60.784 0.976928 0.12064 0.176232
-8.44014 -77.559 157.485 -0.842508 -0.337246 -0.420055
11.1236 -113.632 161.613 0.919831 -0.335776 -0.202895
-16.0979 111.108 102.469 0.474758 0.801278 -0.364085
-17.5133 56.3971 164.481 -0.599361 -0.320012 0.733729
-29.9476 76.2528 124.131 -0.916053 -0.350781 -0.194421
-16.2712 44.5019 102.325 -0.392086 0.237625 -0.888709
-7.92664 -119.246 148.211 -0.893756 -0.444469 0.0603955
8.73408 -82.9901 174.043 0.886219 0.163352 0.433511
22.2412 111.471 109.172 0.561311 0.780205 -0.276062
-8.44693 -37.2153 170.737 -0.817222 0.115007 0.564731
12.9082 -19.1747 163.153 0.772669 -0.0916956 0.628152
-25.6426 104.633 154.542 -0.787606 0.508019 0.348701
22.925 107.784 62.0804 0.53439 -0.824209 -0.18737
-15.5185 116.372 19.7762 0.809444 0.586543 -0.0277077
13.588 -38.8639 161.724 0.863223 0.0592139 0.501338
4.17577 -109.487 138.485 0.818813 0.286141 -0.497663
-3.75884 -112.253 179.883 -0.374394 -0.670056 0.640979
-3.53317 -56.9271 130.507 -0.520489 -0.54397 -0.65817
10.2009 -76.5854 167.365 0.997573 -0.0561376 0.0412004
15.6052 -39.1939 103.426 0.473607 -0.342444 -0.811436
22.11 -12.0553 94.0461 0.934909 0.284234 -0.212499
-29.5126 27.2209 117.016 -0.946837 -0.159734 -0.279257
23.7767 -2.65871 146.467 0.930746 -0.0835723 0.355989
-8.26314 -110.919 174.987 -0.927084 -0.242212 0.286091
21.0922 22.107 155.665 0.765879 -0.0507279 0.64098
12.0331 34.9512 98.7051 0.330361 0.130743 -0.934756
-26.5154 26.9084 111.077 -0.848738 -0.094864 -0.520234
16.7816 -29.9725 89.1263 -0.0535442 -0.982695 -0.177325
-30.0724 92.3685 103.356 -0.905724 -0.205048 -0.370972
31.6963 96.6133 114.684 0.985826 0.112168 -0.124764
0.0897967 119.32 162.904 0.013426 0.723856 0.68982
27.0602 10.541 121.63 0.964625 -0.222509 -0.14138
-26.4068 6.36666 141.412 -0.968529 -0.141535 0.204742
28.8085 -20.7352 120.534 0.99744 0.0133702 -0.0702472
30.5802 47.7247 118.333 0.920735 0.0758896 -0.382738
-21.9731 114.6 131.713 -0.808376 0.588578 0.0102285
-16.8624 87.3158 100.608 0.514364 -0.657001 -0.551162
23.3784 -27.4869 147.21 0.784698 -0.367203 0.499411
1.08752 65.9506 109.43 -0.0532066 -0.892576 -0.447747
28.7515 -24.7131 121.149 0.991295 -0.0714027 -0.110612
20.011 -11.1509 83.9753 0.624748 0.77683 -0.0788976
-15.7218 -19.915 45.7493 -0.18112 -0.973574 -0.139099
29.8712 100.975 146.848 0.864318 0.468716 0.182371
-3.81162 -122.613 134.594 0.896097 0.387569 -0.216336
9.80228 -36.5627 96.5882 0.323271 -0.589145 -0.740543
11.9081 -10.5068 53.2334 -0.8542 0.518747 -0.0352544
-15.2753 -7.84826 24.2235 0.402438 0.915187 0.0218294
11.0757 -67.9959 155.204 0.993339 -0.109509 -0.0358495
26.3309 7.62526 142.885 0.946094 -0.169252 0.276151
13.4185 -33.2298 161.386 0.857029 0.01541 0.515038
-6.07525 -114.071 140.922 0.976964 -0.0946534 0.191264
18.5335 76.643 110.091 -0.355134 -0.604543 -0.713027
-5.089 -92.8682 181.664 -0.822578 0.101803 0.559466
-5.3841 -19.1699 171.927 -0.671823 0.00639436 0.740684
26.3761 106.54 100.341 0.797134 0.587411 -0.139735
8.13586 -16.6856 86.9449 -0.720939 -0.289861 -0.629466
-25.8134 22.0525 149.241 -0.824877 -0.130066 0.550146
5.37292 -111.756 141.19 -0.816665 -0.405828 0.41032
25.867 64.7338 117.481 0.827385 0.271491 -0.491657
-14.3801 -25.7774 1.21078 -0.0833074 0.108464 -0.990604
4.06169 -49.6379 118.88 0.0383004 -0.868753 -0.493763
-3.29089 -30.3092 174.851 -0.658508 0.164508 0.734374
-29.0325 60.531 150.443 -0.961091 -0.138918 0.238758
21.7244 79.8068 170.986 0.549286 -0.0418847 0.834584
12.7198 -33.9317 162.609 0.8661 0.0201652 0.499464
-21.8152 108.034 57.3978 -0.472762 -0.855479 -0.211312
25.4462 -11.5713 141.23 0.944189 0.0366394 0.32736
17.9129 -11.1431 49.8683 0.76176 0.619655 -0.189074
-16.4202 103.637 11.1706 0.596875 -0.403341 0.693583
-2.35743 -94.6253 184.638 -0.473791 0.0269787 0.880224
-28.7242 106.811 129.656 -0.815275 0.578245 -0.0309803
-14.6431 119.297 133.633 -0.0757363 0.996571 0.0333276
9.22631 -112.672 186.931 -0.113085 0.254595 0.960413
-11.0986 -9.8925 81.4138 0.713125 0.697607 -0.0692601
-7.05268 -107.192 151.287 0.962096 0.272538 -0.00967106
29.5814 19.6459 138.261 0.974093 -0.157503 0.162284
-4.96458 -129.797 136.536 -0.996819 0.0636355 -0.0479881
-3.642 103.562 109.202 0.674865 0.349428 -0.649967
-11.6753 107.48 164.395 -0.286619 0.779274 0.557299
-1.64369 -96.3881 153.129 0.223856 -0.575018 0.78692
-30.062 44.0747 116.508 -0.913722 0.0188319 -0.405902
-25.6935 55.5261 112.497 -0.776062 0.229577 -0.587385
-26.0303 16.0999 113.453 -0.924439 -0.185748 -0.333031
-12.5204 -114.634 166.18 -0.323891 0.268728 0.907127
-11.5459 -109.634 156.604 -0.985855 -0.164371 -0.0327281
-19.7331 41.7219 158.764 -0.618399 -0.0886291 0.780851
24.2502 52.5525 109.695 0.606863 0.302803 -0.734866
2.57095 69.1155 111.89 0.92711 0.0339356 -0.373251
16.3232 112.104 35.6388 -0.979687 -0.200415 0.0069416
11.746 -60.0962 142.768 0.921224 -0.354966 -0.159204
10.5597 -9.66665 166.516 0.73227 -0.0388956 0.679903
-5.13182 -29.6169 172.964 -0.662456 0.146517 0.734632
0.197674 123.858 129.688 0.17162 -0.978713 -0.112545
7.87947 -65.4717 175.151 0.854784 0.0450748 0.517023
26.8839 106.968 77.097 0.918456 0.386272 -0.0850469
10.3421 -42.6851 168.009 0.891457 0.0804024 0.445915
-21.306 -9.93378 95.4649 -0.804736 0.575825 -0.144312
11.3409 -119.448 190.05 -0.748276 0.180332 0.638406
33.5141 77.2829 138.207 0.949022 -0.231749 -0.213659
-2.29978 -116.841 146.806 0.220771 0.754661 -0.617856
-19.0261 97.1468 3.0652 -0.00809789 -0.793431 0.608607
-28.9931 -23.2013 122.94 -0.997949 -0.01388 -0.062491
14.9282 113.529 24.7713 -0.815015 0.443495 0.37291
-23.7676 111.677 139.445 -0.847502 0.530576 0.0151452
21.6555 115.906 73.1004 0.927294 0.361096 0.0986664
3.97759 -114.123 177.447 0.287376 -0.759124 0.584076
11.1022 81.935 110.201 -0.543519 -0.505104 -0.670416
8.06177 -71.0055 150.021 0.737802 -0.531242 -0.416449
31.0785 52.3651 142.176 0.967813 0.0348535 0.249245
-8.6161 107.15 166.35 -0.279197 0.753007 0.595843
26.6612 -35.0484 118.787 0.877655 -0.416945 -0.236387
-19.6402 119.667 34.1684 0.395663 0.917813 0.0326941
-15.4055 63.6276 111.324 -0.0739466 0.454253 -0.887798
-4.34499 -108.033 139.551 -0.77264 0.342696 -0.534403
11.0667 -53.0513 130.206 0.674575 -0.650108 -0.349727
10.4265 -16.6369 0.546385 -0.745646 0.416983 -0.519747
17.1512 -42.484 152.159 0.949512 -0.127922 0.286466
-14.006 -10.864 29.8827 0.986691 0.155382 0.0479279
-9.19448 -54.2732 129.473 -0.360438 -0.792693 -0.491652
14.0992 -55.566 156.546 0.964974 -0.254705 0.0628484
2.75304 -4.36396 171.173 0.538483 0.274266 0.796753
-0.412601 62.4959 174.53 -0.129162 -0.354564 0.926068
-17.2276 110.116 39.4273 0.636598 -0.771102 -0.012076
-32.0534 76.8089 132.394 -0.932678 -0.279234 -0.228345
-19.646 -13.3066 155.766 -0.823241 0.0404344 0.56625
-17.5686 118.236 127.867 -0.453113 0.885539 -0.102514
28.1645 14.3632 140.117 0.968432 -0.1347 0.209751
-0.0711059 33.5811 167.06 -0.0709911 -0.220007 0.972912
1.97446 118.38 135.157 -0.493008 0.866308 -0.0803342
16.1731 113.109 15.8067 -0.73924 0.594261 -0.316826
-12.9427 -23.4414 68.6882 0.707558 -0.67852 -0.197416
28.901 -19.9987 122.201 0.997492 0.0684296 -0.0180774
27.5 67.5967 122.506 0.905072 0.221627 -0.36294
18.7401 58.8781 164.929 0.535893 -0.449284 0.714817
-28.4744 101.47 96.6219 -0.977911 0.206652 0.0313824
-23.0182 102.682 161.949 -0.631871 0.58359 0.510061
-17.3886 -18.319 158.185 -0.765256 -0.128982 0.630671
-27.0809 -13.9017 135.871 -0.970763 0.140381 0.194712
-1.76304 -116.594 128.038 -0.180122 0.966428 -0.18323
25.4069 -11.1903 111.303 0.855887 0.426097 -0.293085
-22.2539 -23.0774 81.5413 -0.935922 -0.306322 -0.173827
-13.3046 101.496 169.51 -0.322254 0.527776 0.785878
-7.38105 -24.383 170.036 -0.750715 0.0807724 0.655669
21.5522 -6.45765 151.036 0.897717 -0.012837 0.440384
-25.9578 -36.5354 131.737 -0.887128 -0.419933 0.191467
-24.667 110.712 81.0916 -0.802322 0.589829 0.091555
-18.6364 69.0618 171.51 -0.461538 -0.338079 0.820174
19.7526 115.259 146.557 0.588579 0.785758 0.190153
11.5031 -53.0653 131.187 0.771915 -0.550879 -0.317299
-3.53391 33.3682 166.706 -0.229471 -0.227396 0.946379
-15.3985 118.136 143.116 -0.249888 0.956482 0.150661
-1.6264 -108.929 182.932 -0.210835 -0.36105 0.908401
-18.3167 101.213 72.8684 0.371102 -0.76121 -0.531829
-19.8783 13.5573 156.389 -0.717604 -0.045539 0.694961
-10.5534 -96.9605 148.479 -0.927656 0.261346 -0.266744
-22.1705 110.596 43.8801 -0.793413 -0.608138 -0.0257721
11.544 -21.5747 70.1749 -0.88473 -0.449729 -0.122458
-1.98735 -130.323 143.224 -0.527999 -0.766168 0.366339
12.7101 -14.3216 28.6427 -0.902298 0.430962 0.0113913
-6.44991 -19.9432 91.9189 0.899761 -0.17428 -0.400071
22.4957 95.4742 79.4356 0.108363 -0.811949 -0.573581
10.0912 117.404 149.88 0.140694 0.940745 0.30855
-11.1064 13.8957 97.3535 -0.519036 -0.0829781 -0.850715
24.2245 -2.86135 118.657 0.973413 -0.0317153 -0.226852
15.2494 -44.9599 157.57 0.934907 -0.0134105 0.354639
2.37693 -62.6253 181.998 0.869072 0.0500309 0.492148
26.9332 67.2776 120.898 0.905072 0.221627 -0.36294
21.7645 115.731 36.0391 0.971038 0.23732 0.0276405
-11.0152 103.84 100.12 0.825735 0.473009 -0.307285
-24.8811 -18.0168 104.02 -0.972625 0.0125427 -0.232043
7.36325 -65.9004 142.651 0.893184 -0.362103 -0.266653
-9.09441 -19.6507 2.72717 0.968918 0.190888 0.15735
27.0802 30.0365 148.877 0.845905 -0.123069 0.51894
23.3011 -19.8469 150.304 0.871439 -0.049731 0.487976
-14.9467 -0.532437 101.799 -0.737466 -0.0469258 -0.673752
-9.84694 -90.9539 159.12 -0.742931 0.668555 -0.0329872
7.00582 -107.216 151.849 -0.971793 0.21479 -0.097388
-22.5457 100.126 73.3519 -0.145561 -0.734952 -0.662313
23.6458 21.5814 107.596 0.792557 -0.103423 -0.600963
29.8323 21.6375 138.972 0.969553 -0.169276 0.176952
-33.3818 45.2083 132.221 -0.998479 0.0534879 -0.0134049
-18.6192 3.57197 105.019 -0.716816 -0.200869 -0.667703
12.9371 -40.73 163.149 0.86426 0.0805299 0.496557
7.89261 -89.6432 159.371 0.510688 0.858451 -0.0475303
9.83779 -49.1252 119.261 0.0720361 -0.912542 -0.402589
3.37004 -112.141 152.588 -0.0504722 0.819469 -0.570897
6.49237 119.696 133.626 -0.145729 0.985005 -0.0923522
-25.9635 31.6835 109.65 -0.843903 -0.0437542 -0.534708
-4.23321 108.076 168.552 -0.585063 0.481094 0.652878
5.47049 -49.86 119.286 -0.00368165 -0.861452 -0.507826
-28.3006 -29.9439 118.851 -0.964978 -0.186073 -0.184917
-21.8811 -13.1795 86.0172 -0.869535 0.459676 -0.180574
-22.2049 97.0726 0.800389 0.257879 0.755709 -0.601999
-11.1287 -94.0178 155.769 -0.930034 0.330977 -0.15966
-33.4861 85.8891 130.264 -0.987706 -0.0715799 -0.138973
-15.7516 -0.653707 160.351 -0.699158 0.0164707 0.714778
-33.7014 83.4651 150.648 -0.981279 -0.0260387 0.190824
17.6384 -7.27699 97.3274 0.246382 0.966006 -0.0782774
25.4827 -36.9627 133.236 0.837336 -0.511142 0.193912
8.07667 47.6878 100.627 0.126982 0.412173 -0.902214
-25.1398 52.9806 155.608 -0.784943 -0.162786 0.5978
25.2471 12.7521 113.253 0.878211 -0.19478 -0.436814
-25.0308 -7.66213 140.191 -0.957552 0.175362 0.228785
15.9204 96.7166 81.8306 -0.561835 -0.681981 -0.468234
-28.4851 105.314 109.533 -0.749481 0.657416 -0.0779867
-8.784 -26.0997 1.85935 0.892449 -0.287015 0.348076
1.21565 -22.4827 174.933 0.374312 0.0956952 0.922352
30.915 59.8175 127.473 0.943985 0.247031 -0.218789
-4.70355 -67.8874 139.866 -0.670731 -0.551369 -0.496097
-3.06142 -103.469 158.454 -0.0353917 0.0851042 -0.995743
26.838 88.2746 96.7266 0.777983 -0.573786 -0.255952
-9.29438 -31.3981 168.517 -0.802554 0.0659915 0.592919
7.23438 -119.845 157.771 0.820888 -0.57059 0.0238885
-12.8211 119.505 135.381 -0.325252 0.944358 -0.0489836
-11.7244 -66.0739 159.757 -0.991243 -0.12309 0.0478143
-15.4842 113.509 67.5846 0.970743 0.228797 -0.0728671
-14.3345 112.651 22.2937 0.961129 -0.255617 -0.104364
2.26724 -125.89 152.597 0.549701 -0.772928 0.316877
-11.6125 -3.26447 164.64 -0.75631 0.0955705 0.647195
16.2177 107.431 16.5568 -0.808119 -0.558446 0.187299
-22.9994 112.674 142.554 -0.779043 0.626153 0.0320163
-31.8341 53.2641 138.541 -0.989006 0.102816 0.106279
-16.8472 116.758 27.5851 0.936734 0.341446 0.0770992
-22.904 106.575 66.4882 -0.463125 -0.687123 -0.559801
-0.1959 -17.7509 174.876 -0.31936 0.115549 0.940562
-29.9568 46.6424 116.66 -0.920292 0.0665868 -0.385524
7.75005 -21.5594 169.516 0.730567 0.00772803 0.682798
-1.54891 88.2022 110.52 -0.0669294 0.848655 -0.524696
-14.974 66.2301 112.613 -0.0730457 0.45088 -0.889591
6.57014 -89.9217 179.276 0.748809 0.20838 0.629177
28.5393 -27.7231 134.015 0.959597 -0.174013 0.221118
-0.618185 37.0262 96.6434 -0.0705293 0.251752 -0.965218
13.953 15.6415 98.8988 0.567044 -0.115759 -0.815513
-31.8849 88.584 156.106 -0.929013 0.171103 0.328112
-7.5003 -112.003 141.443 -0.898169 0.0364296 -0.438138
23.5866 108.46 62.1044 0.742292 -0.650937 -0.159011
-10.0427 -91.3216 168.166 -0.983507 -0.00313611 -0.180841
30.2222 53.4658 145.244 0.933488 0.0117259 0.358417
-27.3327 63.8365 119.794 -0.883661 0.24227 -0.400561
-19.9722 -16.2883 63.7685 -0.986584 0.0543249 0.153949
-23.9052 -16.8138 92.7026 -0.943388 0.325892 -0.0617514
-8.57725 -114.305 144.611 -0.959159 -0.143981 -0.24348
15.0356 98.1084 170.587 0.185658 0.349125 0.9185
5.25972 -64.107 136.988 0.677797 -0.472611 -0.563231
-24.035 0.0524362 116.927 -0.962773 -0.140801 -0.230746
9.75326 19.3422 162.96 0.399867 0.0430564 0.915561
-23.7184 111.764 139.15 -0.847502 0.530576 0.0151452
-14.3738 25.814 98.9031 -0.523714 -0.00111071 -0.851894
1.09295 123.836 134.569 0.765502 -0.638105 -0.0826371
16.8469 -44.0153 108.705 0.559518 -0.720587 -0.409504
-19.8458 -13.3165 70.1203 -0.989447 0.114771 -0.0884387
-17.8577 116.778 42.7949 0.844402 0.53524 0.0224166
29.1375 -29.3937 126.196 0.993147 -0.116734 -0.00558854
-17.3412 -9.97929 16.4573 -0.75541 0.497049 -0.426963
21.3839 -22.72 152.289 0.782304 -0.199637 0.590039
-31.4638 99.1626 140.358 -0.916803 0.389173 0.089532
-30.7843 64.6282 139.144 -0.999275 0.0308038 -0.0223605
-6.64807 -79.3853 177.219 -0.936367 -0.0335825 0.349413
13.9127 -11.8996 34.5029 -0.980142 0.198293 -0.00112799
-7.87237 -110.411 176.763 -0.793702 -0.54154 0.277077
-22.2616 -42.4866 119.957 -0.689355 -0.722676 -0.0502901
-6.94755 89.0784 109.051 0.620185 -0.389842 -0.68073
-10.1941 6.49731 97.2371 -0.578171 -0.0429945 -0.814782
17.8492 109.603 43.4381 -0.373627 -0.927216 -0.0259609
8.90392 -77.6067 158.566 0.879388 -0.290361 -0.377315
19.9627 27.4883 102.834 0.620026 -0.00188332 -0.784579
-16.2808 28.2076 160.226 -0.612591 -0.0709714 0.787207
-7.57046 -58.3577 175.208 -0.857754 0.0634659 0.510128
5.0196 79.2453 114.165 0.921062 -0.184691 0.342833
19.3736 114.406 83.6903 -0.298597 0.905682 0.300965
-9.15796 71.9074 175.388 -0.200985 -0.214871 0.955738
-14.1366 63.0975 170.783 -0.392969 -0.520763 0.75788
-9.44116 107.814 106.803 0.624861 0.56824 -0.535399
-4.42664 -9.93478 95.0704 -0.201284 -0.152019 -0.967665
17.6322 -46.6157 127.652 0.623812 -0.781312 0.0202428
20.0828 119.808 61.3579 0.429168 0.890717 -0.149795
5.25056 5.32729 94.9541 0.21854 0.0160321 -0.975696
-31.8708 51.2612 139.487 -0.962855 0.0704898 0.260655
7.63242 -66.8523 175.68 0.854784 0.0450748 0.517023
-31.7564 56.9397 129.131 -0.977884 0.189542 -0.0884147
-28.4197 -20.0301 117.473 -0.986059 -0.00122773 -0.166393
-17.9684 -12.5611 40.6799 -0.942629 0.333618 -0.0122357
-5.33791 64.6296 111.403 -0.0560861 0.427202 -0.902415
28.9659 106.256 123.608 0.805007 0.593264 -0.00114
25.4287 -6.57748 133.572 0.992233 0.124347 -0.00343766
14.3131 113.864 3.33411 -0.907315 0.420011 -0.0192238
23.2465 1.07753 114.046 0.931651 -0.146522 -0.332502
6.55941 35.2561 166.437 0.229044 -0.216922 0.948938
-31.5692 98.3214 142.935 -0.916803 0.389173 0.089532
-29.2948 83.4917 110.662 -0.77849 -0.266734 -0.56816
17.302 -8.63443 86.3878 0.535278 0.790519 -0.297587
-4.91997 -79.7564 180.529 -0.793894 0.0249717 0.607543
25.7567 95.8954 80.7626 0.529059 -0.669502 -0.521406
10.8606 -102.661 146.266 0.959369 0.0578049 -0.276171
-33.4063 89.3396 141.184 -0.99678 0.0801822 -0.000422572
12.4717 -9.79533 57.7993 -0.865279 0.50129 0.000100086
-11.0601 -66.2217 150.61 -0.928506 -0.320293 -0.187857
-1.25887 110.919 118.332 0.712189 0.573562 -0.404738
-16.1267 14.1461 100.663 -0.56903 -0.137223 -0.810787
8.70256 61.9016 172.323 0.363745 -0.358714 0.859659
24.1284 -25.2278 105.863 0.889539 -0.303098 -0.341837
-16.4012 -21.3055 52.3005 -0.424568 -0.814546 -0.395293
-4.0709 -95.8266 154.604 0.940494 -0.276293 0.197824
6.60267 -64.0357 139.119 0.812177 -0.382784 -0.440278
17.6151 -46.6757 144.426 0.937947 -0.345723 0.0270215
33.059 37.5898 131.939 0.989152 -0.127111 0.0736312
-0.125834 -116.779 130.604 0.0422552 -0.908115 0.416583
-33.6833 84.3956 132.648 -0.976267 -0.11443 -0.183869
-25.6744 94.7713 82.1634 -0.537614 -0.697536 -0.473724
21.3776 -29.026 104.109 0.770734 -0.558468 -0.306728
-27.7682 -13.4743 129.261 -0.971927 0.218414 0.0874837
-29.7651 19.6352 124.781 -0.964002 -0.211736 -0.160832
7.36377 51.7483 169.971 0.255222 -0.197557 0.946485
-4.70494 -126.134 146.292 -0.86768 -0.461808 0.184022
18.7044 -29.3823 3.42537 0.293417 -0.727213 0.620538
-6.46158 -48.147 116.39 -0.050083 -0.881573 -0.469384
22.0034 -34.3458 107.735 0.816492 -0.10427 -0.567864
-17.261 27.3839 159.389 -0.612591 -0.0709714 0.787207
-31.2361 81.6776 159.452 -0.923165 -0.00760048 0.384329
3.91545 -87.585 154.2 0.703182 0.320019 -0.634919
-17.7539 -46.258 144.249 -0.928336 -0.37174 -0.00110973
-3.04365 -48.6735 179.191 -0.839833 0.106915 0.532211
-6.2422 -123.695 134.247 -0.984813 -0.17194 -0.0240754
-33.069 79.6135 152.875 -0.983778 -0.0947097 0.152349
14.127 91.8068 97.3123 -0.664534 -0.615673 -0.423486
-8.82504 -44.1547 171.1 -0.895627 0.0557625 0.441297
6.75325 -76.5768 177.234 0.905478 -0.0335941 0.423061
5.87952 -81.8655 178.908 0.903884 -0.00387945 0.427759
8.761 -73.1259 172.233 0.95665 -0.0937543 0.275736
-21.7552 114.407 138.789 -0.714192 0.698327 0.0476376
4.56253 -53.2867 127.122 0.321755 -0.768319 -0.553316
-20.2803 -18.8531 10.8961 -0.85583 0.135443 0.49921
11.5347 118.058 123.35 -0.338157 0.912288 -0.231044
25.6851 31.4673 109.229 0.845639 -0.0324152 -0.532771
-7.85475 -92.8167 149.585 -0.298893 0.800871 -0.518911
30.4958 49.3286 118.56 0.921963 0.144781 -0.359197
19.0946 116.381 143.462 0.595174 0.799618 0.0798648
27.6138 -16.3035 134.846 0.972893 0.137601 0.185864
-2.9694 -111.87 180.572 -0.255039 -0.57534 0.777135
-1.69638 -118.437 171.237 -0.0223832 -0.883432 0.468024
-21.5821 118.388 66.8212 -0.877122 0.459394 -0.140051
9.34826 -19.9928 4.66782 -0.968215 0.0758783 0.238333
11.6183 -95.671 162.134 0.985525 0.148403 0.0819555
-31.3612 59.9512 131.51 -0.975021 0.204021 -0.0878032
11.382 -28.347 90.2635 -0.695612 -0.691862 -0.193524
16.4202 -9.12538 160.065 0.767812 -0.019482 0.640379
-26.5318 -29.2966 112.895 -0.819276 -0.260507 -0.510806
-11.9872 119.556 132.435 -0.209307 0.96786 -0.139419
-9.90739 113.877 114.414 0.459367 0.759904 -0.459922
27.1816 -24.7166 111.029 0.846478 -0.298976 -0.440554
-2.74686 -85.5623 153.058 -0.900956 0.056723 -0.430187
29.5541 18.9908 124.442 0.956874 -0.238118 -0.166408
-2.98406 108.939 113.512 0.483295 0.61777 -0.620311
27.0309 44.4766 151.273 0.838758 -0.053137 0.541906
11.8117 -96.3015 159.43 0.993195 0.113666 -0.0253726
8.2291 81.7171 112.651 -0.535132 -0.504981 -0.677221
13.7708 52.7182 166.437 0.529485 -0.281127 0.800383
-15.2718 6.572 160.419 -0.56881 0.0469973 0.821125
-12.0361 -51.0394 165.387 -0.901544 0.0695665 0.427059
22.6609 20.9825 106.375 0.7959 -0.108278 -0.595666
30.0896 30.7633 117.529 0.956953 -0.0991541 -0.272782
-27.8477 33.6922 148.422 -0.840262 -0.108856 0.53114
-21.0131 21.087 104.325 -0.726345 -0.0863751 -0.681881
25.1951 -34.9172 114.798 0.859159 -0.360069 -0.363587
7.39067 119.203 130.081 -0.183942 0.964489 -0.189545
-27.19 -10.1648 121.871 -0.931078 0.361976 -0.045458
-2.15213 -45.2993 107.494 0.243308 -0.96069 -0.133701
-10.0444 -95.4037 173.93 -0.995116 0.0293219 0.0942551
-14.1367 35.9259 162.591 -0.55927 -0.0881555 0.824285
11.8298 -19.3404 49.4503 -0.702075 -0.676997 -0.22083
1.9378 88.476 111.2 0.212616 0.872395 -0.440138
-33.4931 75.6585 142.143 -0.98404 -0.166892 -0.0617497
-1.89095 -40.6457 178.461 -0.318294 0.208843 0.924702
-27.7825 -34.0743 127.38 -0.920613 -0.378323 0.0966637
-26.1685 3.51291 126.926 -0.977666 -0.191444 -0.0867104
-26.512 -21.5836 108.419 -0.842394 -0.199672 -0.500504
0.641097 -112.602 180.577 0.107235 -0.630178 0.76901
4.1431 -43.628 176.707 0.565517 0.172414 0.806513
7.84452 74.5922 115.318 0.0425732 0.255916 -0.965761
-16.375 105.971 13.4033 0.86223 -0.469133 0.19098
10.1401 -35.4214 167.445 0.893937 0.0405152 0.446357
-18.6505 119.074 31.8622 0.738023 0.67106 0.070712
32.4105 87.2723 121.427 0.973758 -0.166361 -0.155307
-21.3499 115.409 129.059 -0.730033 0.683379 0.00665768
-0.270411 -107.504 138.037 0.100774 0.67119 -0.734403
-13.8824 118.213 144.869 -0.244898 0.92162 0.301068
-26.9991 5.84044 132.594 -0.977879 -0.203023 -0.050336
-25.7592 0.408142 128.949 -0.986016 -0.154768 -0.0617984
-3.63192 -60.0698 132.711 -0.557975 -0.454612 -0.694256
-11.1318 -111.862 186.527 -0.244704 0.417894 0.87492
-18.7997 -38.6304 106.112 -0.689521 -0.337611 -0.640764
-20.2178 -38.1946 145.36 -0.806465 -0.479494 0.345976
-0.146428 -105.07 140.252 0.106926 0.667904 -0.736526
33.5493 76.3915 144.765 0.991823 -0.119892 0.0437413
-10.7348 51.392 168.235 -0.439923 -0.227407 0.868766
2.35928 -33.7378 92.6514 -0.0507646 -0.204788 -0.977489
1.57026 123.378 144.329 0.93939 -0.338168 -0.0564756
-27.3353 46.6641 151.041 -0.845032 -0.0806414 0.5286
6.45688 -79.931 177.678 0.936367 -0.0335825 0.349413
18.4715 87.1362 99.1989 -0.120222 -0.74488 -0.656277
29.0629 101.251 150.338 0.880158 0.449239 0.153316
-32.1259 30.4458 129.091 -0.991048 -0.124202 -0.0489648
12.3575 -11.1757 49.5054 -0.859513 0.466848 -0.208065
16.9029 117.194 62.3035 -0.900998 0.413031 -0.132694
17.5819 4.6928 158.503 0.748776 0.00218149 0.66282
20.9092 -3.89485 109.681 0.884219 -0.0716479 -0.461545
-27.8649 -14.9009 115.786 -0.954269 0.0420644 -0.295976
-6.91311 -21.6595 170.422 -0.725036 -0.0116516 0.688613
16.4468 -20.9409 17.1737 0.222784 -0.788599 0.573131
20.1786 -19.319 55.7205 0.882333 -0.467757 -0.0518943
9.66093 -19.9333 5.67359 -0.939978 0.128917 0.315945
11.1278 57.8688 169.561 0.438791 -0.207444 0.874317
12.5996 -60.8496 157.67 0.958269 -0.285861 -0.0021808
-7.86498 -43.2979 172.796 -0.823335 0.11468 0.555848
-26.3547 -15.3757 111.551 -0.883134 0.134744 -0.449353
-22.7119 -14.4488 89.306 -0.953236 0.240133 -0.183516
-17.4609 -11.5944 30.5199 -0.931753 0.347466 0.105375
-29.2306 89.463 161.588 -0.885674 0.156435 0.437162
-26.9611 -26.9119 112.081 -0.842157 -0.303728 -0.445557
-7.16986 -115.322 140.47 -0.962835 0.00689922 -0.270002
-16.4798 111.392 35.6565 0.979878 -0.195377 0.040819
20.6667 118.625 26.9306 0.967575 0.252133 0.0150517
-27.5281 -11.0556 124.628 -0.972279 0.228074 0.0515326
-21.4152 -6.47063 151.284 -0.892803 -0.0410694 0.448572
28.404 26.477 145.646 0.920124 -0.116104 0.374021
26.3603 107.859 75.1896 0.901101 0.432403 -0.032337
-19.8316 -44.2666 116.671 -0.687936 -0.725524 -0.0189678
-16.6595 -10.1126 37.6629 -0.924151 0.38035 0.0357716
-28.4908 93.2804 90.3964 -0.840158 -0.506893 -0.192855
-11.1985 -14.5797 19.9445 0.995634 0.0733383 -0.0577385
-16.101 -28.7342 0.817146 0.0270006 0.142711 -0.989396
-12.5036 -45.4773 164.645 -0.914177 -0.031264 0.404107
-28.0603 85.0784 105.657 -0.894044 -0.447121 -0.027709
-1.46451 -130.03 126.843 0.019235 -0.812564 -0.582555
3.95895 84.7654 175.489 0.0752997 0.184188 0.980002
-18.6733 -15.5972 41.3763 -0.995158 0.0940206 -0.0286478
7.01451 83.4458 112.516 -0.481174 -0.383415 -0.78833
-6.88488 -26.3944 170.831 -0.686899 0.116228 0.717399
-17.9049 -41.0171 150.317 -0.949815 -0.127041 0.285852
24.9651 -6.009 119.582 0.83329 0.538531 -0.124949
14.8033 100.091 4.6966 -0.548163 -0.6335 0.546072
16.0307 46.0162 102.671 0.36952 0.238943 -0.897976
22.0269 -19.5596 0.904848 0.919139 0.348657 -0.183363
24.0019 -30.0273 109.311 0.815839 -0.246312 -0.523199
-24.03 -37.0743 113.416 -0.92573 -0.263111 -0.271656
-16.7823 -18.5675 30.2714 -0.598123 -0.801029 -0.0245239
21.7791 114.357 139.205 0.730753 0.681227 0.0439372
19.3589 109.281 1.20515 -0.0283292 0.184325 -0.982457
-6.68703 -60.7483 176.991 -0.857754 0.0634659 0.510128
9.36277 109.489 162.485 0.250957 0.826448 0.503989
-7.15137 -56.9857 175.813 -0.878942 -0.00277167 0.476921
0.653437 -71.9741 183.646 0.28699 0.0786852 0.954697
-19.9015 92.4073 170.591 -0.455871 0.20628 0.865812
-30.5356 100.675 143.291 -0.916803 0.389173 0.089532
-30.8539 94.8876 107.501 -0.98996 -0.140818 -0.0122282
-10.3098 -36.8122 97.0162 -0.391687 -0.582669 -0.712094
5.10168 -52.13 124.173 -0.110117 -0.935582 -0.3355
17.9991 -29.8063 3.26197 0.293417 -0.727213 0.620538
-2.43286 81.896 106.824 -0.0544774 0.144156 -0.988054
27.9805 53.341 114.987 0.866991 0.202147 -0.455482
-11.3504 111.443 158.889 -0.265197 0.769121 0.581484
-26.557 98.5649 160.543 -0.867809 0.396605 0.299353
8.05395 -85.9195 162.036 0.840302 -0.236369 -0.487876
-4.55096 30.1754 165.726 -0.217115 -0.221391 0.950709
23.2671 -18.3664 150.515 0.871439 -0.049731 0.487976
12.4203 -28.0454 86.7335 -0.653141 -0.681889 -0.329295
-4.89541 -99.5757 153.288 0.940494 -0.276293 0.197824
6.83197 -37.995 173.122 0.749241 0.150009 0.645086
11.6575 -66.0648 161.189 0.991117 -0.124035 0.0479853
6.17651 -37.5556 173.747 0.727396 0.149028 0.66984
-21.7501 111.903 11.6447 -0.787959 0.574874 0.220548
23.3912 -3.59867 147.204 0.926528 -0.0748584 0.368702
-31.7015 39.0856 140.763 -0.96105 -0.0738608 0.266321
-32.0551 86.2937 120.205 -0.974264 -0.166867 -0.151544
-26.7478 9.38778 142.359 -0.94396 -0.210449 0.254266
2.47434 -84.8039 152.398 0.940138 -0.0613635 -0.335225
-18.2818 88.3965 95.6958 0.649788 -0.746853 0.141374
0.758042 124.558 125.899 0.765695 -0.637859 -0.0827433
0.543111 114.156 161.603 0.167022 -0.813441 -0.557151
13.1218 -12.5913 42.8493 -0.937914 0.342795 -0.0530008
-32.3349 70.523 145.656 -0.933307 -0.342531 -0.107754
-3.36204 55.5852 171.89 -0.0789505 -0.254475 0.963851
7.45561 -65.6173 142.576 0.893184 -0.362103 -0.266653
15.7385 -42.3407 156.485 0.93004 -0.0251677 0.366596
7.14927 19.4069 163.862 0.25838 0.0303738 0.965566
-6.11228 -76.2857 178.616 -0.905807 -0.0286138 0.422723
-1.05322 125.77 127.092 -0.939277 0.343145 0.0031715
0.694052 117.009 133.007 -0.488453 0.850534 -0.194951
-8.13855 -71.5574 174.5 -0.947342 -0.0789261 0.310343
15.9878 83.2602 105.79 -0.445345 -0.624602 -0.641514
-1.62337 24.74 165.005 -0.135002 -0.106207 0.985137
-7.13773 -2.22384 168.402 -0.503218 0.281614 0.816985
4.3403 78.626 108.012 0.710865 -0.140349 -0.689183
5.60543 -68.3192 179.064 0.760585 0.0580488 0.646638
-14.2757 61.0877 169.296 -0.511036 -0.419623 0.750172
5.41103 -115.67 136.925 -0.947807 -0.185951 0.259004
1.51024 118.365 137.966 -0.580843 0.810078 -0.0799644
8.31481 96.3392 102.668 -0.857106 -0.213855 -0.468652
15.1473 12.8148 100.123 0.575092 -0.106654 -0.811107
25.6499 107.618 148.418 0.742163 0.63901 0.202137
15.5015 24.4167 99.5615 0.538005 -0.00196357 -0.842939
28.7221 92.7588 94.938 0.980523 -0.174429 -0.0902673
20.0907 109.796 33.1459 0.489166 -0.871917 0.0218716
-21.7046 85.9357 97.8185 0.0390837 -0.918772 -0.39285
31.9563 49.2723 139.54 0.962811 0.0523612 0.265055
-3.78464 -81.9839 152.62 -0.515673 -0.512982 -0.686244
-29.7889 67.9027 132.192 -0.965687 0.198923 -0.16697
-17.9647 92.4236 85.9001 0.413646 -0.756971 -0.505858
13.5922 34.5287 99.2634 0.473104 0.120519 -0.872724
24.1373 -35.2037 112.2 0.921333 -0.218909 -0.321285
19.0462 -19.3872 14.107 0.964605 -0.0802393 0.251196
6.57818 119.556 132.491 -0.152738 0.966667 -0.205491
-8.6947 -57.5767 133.769 0.00919162 -0.832577 -0.553832
-27.6119 24.8023 146.758 -0.861288 -0.106341 0.496864
-19.1257 -10.3598 84.3389 -0.635095 0.760381 -0.135924
-23.5374 97.082 1.57069 -0.371378 -0.700006 0.609976
2.68717 87.8104 110.35 0.550577 0.762653 -0.33945
-24.7665 64.2321 164.769 -0.712457 -0.419094 0.562819
-5.42842 62.4433 110.204 -0.0389741 0.512414 -0.857854
-6.62904 -118.955 167.702 -0.13419 -0.922999 0.360647
-17.9214 97.0581 170.079 -0.397942 0.371747 0.838717
-5.82273 -34.2542 92.9938 -0.47768 -0.680282 -0.555913
-15.8695 56.8018 107.444 -0.151074 0.463909 -0.872906
-8.57172 103.179 170.057 -0.265168 0.514754 0.8153
-4.58059 42.7701 98.3657 -0.162697 0.270477 -0.948879
20.6924 -16.2311 54.6011 0.9954 0.00630804 -0.0955958
-13.2954 49.8138 165.978 -0.619079 -0.194444 0.760877
11.977 74.6601 115.029 -0.414459 -0.478501 -0.774119
10.2847 82.6467 110.327 -0.543519 -0.505104 -0.670416
10.1265 -81.1673 166.194 0.99634 -0.0714578 -0.0469077
-30.8027 89.0848 158.534 -0.886213 0.155577 0.436373
30.5602 54.9634 121.745 0.915322 0.244759 -0.319811
12.0708 -14.7534 24.853 -0.935034 0.237761 0.263024
-3.61696 75.3674 113.513 -0.763538 -0.61237 0.204972
7.14051 85.5792 110.879 -0.620157 -0.389348 -0.681039
30.2966 104.458 124.898 0.847985 0.529965 -0.00766117
30.5638 64.2482 132.599 0.967252 0.209796 -0.142863
0.706722 87.0725 108.811 -0.253364 0.777669 -0.575358
16.8076 -48.6808 145.738 0.931969 -0.360767 0.035787
-19.7661 -14.6089 7.40727 -0.745335 0.623612 0.235763
-30.3359 101.593 108.05 -0.95886 0.275144 -0.0698827
-4.76966 -78.3858 180.669 -0.793894 0.0249717 0.607543
7.022 -110.131 147.354 -0.972646 0.19197 -0.130798
-31.7718 98.9695 117.912 -0.973644 0.205967 -0.0979592
-9.3921 109.535 108.832 0.541858 0.644262 -0.539737
-28.7747 -18.5894 120.749 -0.9954 0.0949422 0.0128538
4.3694 -126.006 137.588 -0.866774 -0.44088 0.233082
-27.9477 86.7851 164.261 -0.806502 0.143967 0.573435
-4.36531 21.558 94.316 -0.290328 0.011084 -0.956863
-16.6509 52.2925 105.328 -0.246349 0.402594 -0.881607
14.3604 -26.0946 160.441 0.814062 -0.0231491 0.580316
-16.3902 -7.82687 20.3906 -0.342136 0.929735 -0.136147
-28.2258 75.0675 118.667 -0.86962 -0.431911 -0.239193
10.8092 -7.46783 166.113 0.800772 0.0583157 0.596124
2.56009 115.606 163.787 0.987503 0.155412 -0.0261688
-29.1557 101.43 149.489 -0.878058 0.447738 0.168951
13.8814 92.8965 92.4443 -0.746657 -0.631058 -0.210403
-12.498 -10.0427 62.5891 0.82104 0.568988 0.0463252
-2.05796 -52.0593 124.822 -0.114702 -0.850773 -0.512863
-13.1393 51.9481 166.772 -0.584272 -0.282726 0.760718
-21.0305 -27.4733 150.818 -0.74862 -0.282 0.600037
-0.0967079 -40.9208 100.091 0.472121 -0.559499 -0.681222
27.8869 44.4048 149.941 0.838744 -0.0530347 0.541937
-10.8772 -70.5616 165.086 -0.98848 -0.0855403 0.124864
-16.2752 114.326 30.4543 0.971848 0.232836 0.0360504
-12.7914 -28.8631 4.09816 0.440551 -0.674937 0.591925
11.4135 -110.737 169.904 0.936801 -0.109793 0.332187
4.97053 -14.5623 95.2252 -0.240897 0.177314 -0.954216
-9.94538 99.265 99.1886 0.824136 0.0910138 -0.559031
-23.3572 -29.1493 107.864 -0.792171 -0.360248 -0.492632
11.6553 -62.1599 146.442 0.923972 -0.335375 -0.183849
18.716 -9.35991 87.3695 0.667286 0.70858 -0.22944
20.64 108.494 21.6443 0.680674 -0.717714 0.14687
10.0969 76.8881 114.585 -0.303809 -0.461367 -0.833571
-15.9443 96.523 82.0781 0.572667 -0.675203 -0.464923
21.6158 -32.423 147.509 0.83086 -0.324775 0.451878
-31.0448 33.3914 141.408 -0.965235 -0.1373 0.222417
-26.0817 -16.932 141.961 -0.939893 0.30419 0.155145
-32.6508 72.8629 141.981 -0.924521 -0.332825 -0.18571
6.7708 -122.225 140.733 0.9737 -0.204692 -0.100051
-6.9727 -79.8608 156.291 -0.903776 -0.234272 -0.358199
24.5193 32.0422 107.711 0.781343 0.00367461 -0.624091
-4.45983 110.102 166.8 -0.599638 0.708139 0.372791
-24.1216 85.1467 99.9644 -0.378111 -0.808437 -0.451067
23.1353 112.98 124.237 0.806203 0.590138 -0.0421067
-31.7808 74.0341 136.24 -0.884493 -0.405363 -0.230982
-32.6751 98.5424 131.133 -0.958703 0.261495 0.111843
-26.2874 -28.3941 111.881 -0.815041 -0.331134 -0.475456
-17.9138 106.252 162.44 -0.377234 0.730284 0.569544
-27.1072 53.5695 152.613 -0.881687 -0.133337 0.452602
-15.9434 27.3149 99.9029 -0.524582 0.0885077 -0.846747
9.85981 77.8259 175.449 0.173478 0.0377895 0.984112
-16.4548 -8.72894 31.4202 -0.784226 0.610251 0.112172
-16.2652 -2.25023 103.361 -0.737466 -0.0469258 -0.673752
-21.2833 118.553 58.5246 -0.800706 0.596862 -0.0512398
18.9263 3.77024 156.879 0.774769 -0.0397222 0.630995
-31.5658 36.8458 140.704 -0.963456 -0.0793523 0.255842
5.30336 -86.9556 156.042 0.718744 0.124093 -0.684111
9.88031 103.1 101.541 -0.751213 0.442047 -0.490177
0.103455 -129.756 145.138 -0.0741907 -0.912922 0.401334
-28.6415 96.3841 87.5776 -0.962064 -0.200605 -0.184908
-25.9877 44.2848 109.892 -0.777533 0.0619192 -0.625786
-31.774 28.5346 132.792 -0.987713 -0.141263 0.0668361
-23.6201 22.1396 107.502 -0.798488 -0.0748412 -0.597341
-17.0803 -19.2445 44.7651 -0.588631 -0.804949 -0.0746461
13.4946 -38.5439 161.847 0.834836 0.0585777 0.547373
-14.7131 107.383 74.4704 0.93671 0.333817 0.105551
26.9563 12.3562 119.001 0.95205 -0.224906 -0.207408
-14.3076 107.262 10.1089 0.787158 -0.049277 0.614779
-8.02041 117.347 150.875 -0.11969 0.943665 0.308497
7.58357 65.447 111.91 0.0445253 0.408285 -0.911768
-2.9883 -38.5416 177.123 -0.797511 0.12035 0.591178
6.37134 -31.4964 92.4258 0.14135 -0.221129 -0.964947
30.7839 67.1282 139.069 0.992322 0.0780553 -0.0959373
-20.6348 -9.234 95.2551 -0.648832 0.753197 -0.108218
-5.0311 -115.17 135.489 -0.758541 0.397607 -0.51626
15.3819 117.475 119.427 0.217585 0.920422 -0.324776
3.37929 -122.391 125.625 0.642824 0.0500695 -0.764376
-26.1725 73.9965 114.904 -0.736228 -0.567588 -0.368526
-9.79684 -67.5324 170.469 -0.947163 -0.0798341 0.310658
10.1783 -49.7858 121.116 0.235114 -0.941498 -0.241462
-25.1049 98.5742 0.439778 -0.0110856 0.00871082 -0.999901
-19.9724 55.8806 162.142 -0.634427 -0.307546 0.709167
24.0022 110.542 54.9997 0.930241 -0.0982177 -0.35356
14.3569 -9.81935 34.3282 -0.937747 0.343959 0.0481848
-19.8902 -13.0321 58.7946 -0.898455 0.438766 -0.0162096
-10.6836 -51.4836 168.232 -0.923943 -0.0562811 0.378368
21.5159 114.188 3.48195 0.152311 0.825659 -0.543221
-20.8107 -42.9237 114.389 -0.733747 -0.643058 -0.219298
-10.2115 -78.4118 164.215 -0.996116 -0.0504013 -0.0721973
-22.0465 115.613 25.9004 -0.985346 0.154931 0.0713454
31.2224 71.0377 155.643 0.927715 -0.25601 0.271669
16.514 116.034 60.9593 -0.854409 0.50255 -0.132014
1.87795 117.191 150.992 -0.295919 0.941678 0.160235
9.6213 111.59 111.053 -0.542109 0.660918 -0.518945
13.9623 -25.9304 76.6786 -0.421416 -0.889658 -0.175833
-6.93659 -107.283 147.845 0.999102 -0.0321661 0.0275686
10.137 -95.5059 172.353 0.999765 0.00518668 -0.0210675
2.66489 -37.1175 94.7497 0.0236708 -0.71184 -0.701942
1.68192 20.9857 164.815 0.115148 0.0529064 0.991938
-29.6082 73.4119 127.978 -0.908843 -0.370126 -0.192385
4.25919 -38.3666 175.493 0.575884 0.171246 0.799395
-28.7351 87.8618 103.89 -0.872739 -0.373104 -0.314833
20.8647 -4.48468 152.683 0.880978 -0.0958492 0.463347
-9.82236 -108.312 174.28 -0.76813 -0.545943 0.334548
-1.53358 -99.1137 184.691 -0.189284 -0.0852405 0.978216
-25.7331 107.167 99.6803 -0.763348 0.628573 -0.148985
-28.7367 22.9852 143.621 -0.931053 -0.116567 0.345764
6.70709 63.7142 111.007 0.0368346 0.491498 -0.870099
-30.9173 23.1651 130.856 -0.981382 -0.188961 0.0343889
33.2901 44.7399 127.949 0.998888 -0.016843 -0.0440285
20.5991 -18.6366 58.4877 0.934178 -0.342059 0.101525
-0.95278 -17.2736 97.0409 0.104287 0.0971702 -0.989789
-27.3541 76.1837 114.178 -0.801425 -0.480944 -0.355544
18.4477 90.3409 89.059 -0.424757 -0.796123 -0.431009
20.2452 118.161 73.6606 0.309894 0.85354 0.41885
17.1264 -34.0047 101.769 0.673896 -0.468764 -0.571073
-5.13773 -23.9518 93.0062 0.424091 0.236621 -0.874161
-15.5859 -42.8011 105.87 -0.552329 -0.477431 -0.683368
-7.48734 -12.8434 87.4523 0.912651 0.132575 -0.386642
18.0962 120.238 66.0469 -0.819739 0.562728 -0.106605
16.5219 -19.1573 159.037 0.740658 -0.170234 0.649959
17.5835 93.0742 85.2436 -0.403232 -0.760693 -0.508674
16.1779 -22.0328 15.6636 0.250357 -0.831365 0.496139
-14.4154 -6.82965 92.743 -0.0836109 0.994416 -0.0643865
-20.4231 -18.9879 58.7278 -0.946647 -0.303346 0.108816
17.2798 -12.5273 158.9 0.749028 -0.0463396 0.660915
-24.0406 64.5016 114.955 -0.663388 0.325785 -0.673632
5.81451 101.006 171.527 0.169718 0.283937 0.943703
1.50327 124.401 142.154 0.939212 0.343323 0.0032197
-21.4155 116.839 25.7082 -0.859775 0.471899 0.195189
21.0495 99.7621 1.22598 -0.0539909 0.125744 -0.990592
19.5214 -22.3227 67.7211 0.874168 -0.431298 -0.223188
2.3422 -99.3594 151.141 -0.0157211 -0.637821 0.770024
20.917 40.1302 104.206 0.541682 0.0737455 -0.837342
9.65148 -114.353 149.715 0.929945 -0.31962 -0.181783
13.0685 94.1386 92.6115 -0.862297 -0.45259 -0.227171
-7.71521 19.7629 95.3253 -0.294 0.00478598 -0.955793
7.94122 -23.621 90.4664 -0.737139 -0.300762 -0.605118
-26.183 1.90219 131.38 -0.983531 -0.173648 -0.0501224
-11.8094 -18.0807 13.4005 0.96255 0.149134 0.226398
-22.7859 98.8905 1.00572 0.0678498 0.116881 -0.990825
-21.4479 67.7572 115.267 -0.313451 0.0408513 -0.948725
-21.5216 109.739 49.1318 -0.583675 -0.811583 -0.0256398
-26.2051 -37.3785 122.346 -0.846458 -0.530778 -0.0422414
6.92925 -50.6184 175.595 0.78603 0.0950155 0.610842
22.3183 10.7392 108.403 0.845931 -0.180177 -0.501933
18.3501 108.662 52.9628 -0.212509 -0.951604 -0.222011
29.5279 76.7767 120.86 0.89326 -0.398301 -0.208429
9.40447 35.6597 97.8205 0.359662 0.174903 -0.916544
26.4967 31.2962 110.528 0.845639 -0.0324152 -0.532771
-22.8638 112.82 142.987 -0.779043 0.626153 0.0320163
1.09658 30.7936 95.132 0.0903128 0.224617 -0.970253
-13.8724 -19.3949 23.1101 0.309169 -0.950658 -0.0257797
4.86402 115.772 154.888 0.0259268 0.892277 0.450743
-11.1001 104.051 100.239 0.812807 0.498049 -0.302145
-29.7636 102.752 106.312 -0.92004 0.384893 -0.0733736
20.2283 118.505 42.9996 0.694721 0.716467 0.0635442
-27.7598 -18.8962 111.398 -0.924551 0.205078 -0.321166
12.6695 -14.5988 38.5355 -0.950974 0.306626 -0.0403573
22.3482 28.034 105.174 0.786753 -0.0379897 -0.616098
-1.60943 -122.068 140.385 0.283833 0.820183 -0.496727
-29.725 53.0615 146.439 -0.924234 0.00724509 0.381758
9.66243 64.6242 111.561 0.000536126 0.429418 -0.903106
27.014 106.286 81.7588 0.865968 0.498861 0.0351685
-16.0664 38.5817 101.066 -0.436208 0.109384 -0.893173
-10.0847 89.0623 105.628 0.762433 -0.37522 -0.527168
-29.8172 85.823 110.656 -0.867631 -0.446796 -0.218151
25.5463 -7.57661 135.348 0.989428 0.0954835 0.109155
3.27367 -125.558 151.066 0.658752 -0.700708 0.273958
18.1312 -9.90691 80.1772 0.520658 0.853389 -0.0253664
12.5632 102.954 94.3017 -0.915834 0.306164 -0.259829
-15.9836 -8.57386 70.1221 -0.370577 0.928787 0.00521252
29.3534 18.2389 138.041 0.972906 -0.186094 0.137196
29.6613 73.2684 128.546 0.904833 -0.385178 -0.181427
-20.4058 71.1772 171.324 -0.557179 -0.272298 0.784478
-26.7477 5.97095 139.414 -0.980715 -0.166854 0.101775
-24.627 90.4121 87.7921 -0.546845 -0.734886 -0.401127
15.8198 68.3882 172.449 0.491528 -0.229484 0.840082
-26.1102 -16.4738 140.598 -0.92994 0.331558 0.159
17.0932 -33.4501 154.669 0.872306 -0.11497 0.475252
-22.7035 105.363 12.2456 -0.818626 -0.219351 0.530789
-8.31353 -33.9509 94.2524 -0.244726 -0.443786 -0.862069
14.8533 -29.8955 88.4864 0.107317 -0.941394 -0.319783
21.6844 -17.5296 78.6206 0.992641 0.00948857 -0.120722
-15.1753 -19.3894 26.4051 -0.182851 -0.964294 0.19158
-14.9869 110.934 67.5893 0.976976 0.154958 -0.146649
30.8639 60.2208 127.707 0.944595 0.244975 -0.218468
15.8108 18.6525 99.946 0.576772 -0.0421725 -0.815816
-2.36832 -111.484 153.752 0.0430496 0.786715 -0.615814
23.7826 33.2916 106.796 0.781343 0.00367461 -0.624091
12.9262 96.1892 171.731 0.201877 0.290964 0.935193
4.2552 -119.923 137.664 -0.883389 0.415354 -0.217037
-13.2577 100.316 2.77576 0.769738 -0.455616 0.447122
12.7013 109.294 2.6284 -0.969813 0.240563 -0.0399035
18.8982 114.517 82.8942 -0.289328 0.907417 0.304768
-3.74156 101.047 108.359 0.800151 0.130678 -0.58539
16.5642 -37.1855 155.48 0.934449 -0.0831892 0.346243
-22.2391 112.578 27.0754 -0.993988 -0.000385948 0.109487
22.0086 -8.3164 149.918 0.912245 -0.0405522 0.407633
8.67189 -51.4941 124.12 0.403713 -0.792009 -0.457971
-8.78146 -25.8831 90.731 0.697538 -0.331159 -0.635432
-24.1167 -21.0906 101.036 -0.998232 0.0227084 0.0549313
21.8049 51.2551 158.825 0.685714 -0.201328 0.699473
16.4373 -37.0006 155.866 0.934449 -0.0831892 0.346243
-4.30079 -81.9023 181.299 -0.790999 -0.0158036 0.611613
18.9375 -11.2856 56.897 0.843737 0.522965 -0.120897
1.43924 124.192 152.227 0.765683 0.641725 0.0437968
26.7009 -8.62247 125.056 0.913657 0.404999 -0.0347342
-13.9366 112.479 1.74745 0.867737 0.391543 -0.306149
9.57749 -16.9415 80.4094 -0.968524 -0.238341 -0.0717977
-20.2785 -15.2266 69.9349 -0.985104 0.151624 -0.0811205
9.71644 -29.1436 0.863768 -0.71769 -0.645861 0.260356
18.7443 119.286 29.1862 -0.431747 0.901992 -0.00248496
-14.7369 -19.4511 38.8314 0.155748 -0.985657 -0.064986
-17.8715 105.673 16.1817 0.537067 -0.783862 0.31164
19.5966 119.149 18.3225 -0.0203181 0.979848 0.19871
-17.1217 98.0695 1.04072 -0.0208216 0.132654 -0.990944
-4.07466 -23.9286 173.274 -0.684767 0.0495018 0.727079
-11.7814 -21.016 55.2268 0.612271 -0.790611 -0.00760943
29.1522 94.7871 97.8437 0.988575 0.0131036 -0.150157
-2.91921 118.991 136.404 0.497147 0.861784 -0.100863
31.1128 84.1415 159.066 0.82765 0.136823 0.544311
-5.34529 -89.4097 153.993 -0.600622 0.615466 -0.510348
23.3962 114.88 55.2961 0.855739 0.450588 -0.254325
30.4058 55.7654 121.917 0.915322 0.244759 -0.319811
11.9877 -14.4933 46.1418 -0.974392 0.129882 -0.183549
-15.8283 110.601 27.9502 0.934093 -0.196171 0.298309
-20.5233 104.082 13.5549 -0.206476 -0.82492 0.52619
-11.0669 -43.174 105.042 -0.590414 -0.77959 -0.208927
21.4544 92.5792 83.6916 -0.194951 -0.818291 -0.540735
24.1791 42.1095 154.76 0.749931 -0.0704702 0.657752
-9.59542 -16.6577 167.321 -0.774435 0.00149081 0.632651
-11.4335 -47.2481 166.897 -0.868138 0.087007 0.488637
23.2013 39.9027 155.566 0.685188 -0.071268 0.724871
-23.9097 -37.854 137.111 -0.814727 -0.468544 0.341595
-19.9445 -34.7518 105.442 -0.730867 -0.231396 -0.642097
-21.3409 114.996 122.713 -0.688173 0.720545 -0.0850467
0.213874 17.5898 165.177 0.113514 0.123661 0.985811
-28.1365 103.796 84.8208 -0.961479 0.273539 0.0271058
-28.4302 102.635 85.3755 -0.996709 0.0755983 -0.029268
-33.3009 75.1582 147.052 -0.991443 -0.124315 0.0398252
-13.4962 -50.7994 161.828 -0.925447 0.0397699 0.376784
-20.8647 114.065 115.062 -0.654387 0.737968 -0.164868
21.9883 -37.1361 108.844 0.765013 -0.25925 -0.589529
-16.9288 117.484 144.087 -0.429057 0.894263 0.127296
-31.5169 92.3835 112.351 -0.970073 -0.00229487 -0.242805
-27.5505 51.1488 151.338 -0.870692 -0.0735317 0.486301
19.43 120.753 65.8905 0.398215 0.914045 -0.0771152
-5.23882 112.253 115.796 0.434745 0.742256 -0.509954
3.36377 61.1945 173.62 0.129136 -0.35477 0.925993
20.7532 -7.64139 104.456 0.399804 0.879338 -0.258691
22.9368 -20.9737 84.2056 0.982472 -0.00826671 -0.186227
23.1104 5.147 150.522 0.894142 -0.0875943 0.439133
-7.09883 -41.5142 173.555 -0.816031 0.111125 0.567225
22.6746 116.523 58.8831 0.784329 0.609577 -0.11508
-6.75065 97.6622 172.341 -0.15049 0.267635 0.951696
-23.8973 110.083 89.1361 -0.818057 0.574993 0.0128896
-30.743 38.8259 117.911 -0.908937 -0.0284447 -0.415962
33.2691 75.3643 148.075 0.992353 -0.123112 -0.00883143
2.32641 -31.0764 176.036 0.349737 0.245228 0.904183
23.6569 15.5463 151.333 0.865573 -0.0553748 0.497712
-0.362512 -110.318 135.806 -0.0449341 0.600499 -0.798362
-2.44799 -113.603 135.815 0.249845 -0.737278 0.627694
-8.68166 82.7838 111.497 0.541359 -0.498986 -0.676715
32.6389 84.9906 126.061 0.93268 -0.204937 -0.29683
-10.6549 -112.274 151.281 -0.959259 -0.264554 -0.0991647
-20.645 -35.3647 147.104 -0.814548 -0.361803 0.453442
-13.1529 -9.06145 68.2779 0.646314 0.756213 -0.102079
-25.8458 -17.5145 144.594 -0.939186 0.308655 0.150535
