17.3702 -22.106 6.74907 0.866015 0.495356 -0.0681207
16.0014 -18.6801 10.4075 0.692164 0.666673 -0.276508
15.7 -17.981 11.0905 0.754603 0.566265 -0.331539
16.1009 -19.6047 8.65102 0.609615 0.720948 -0.329551
15.6744 -18.9093 9.24006 0.669029 0.646912 -0.36593
17.2811 -22.1333 8.59852 0.988884 0.0315994 0.145293
17.1459 -22.4497 9.30289 0.97669 -0.0363479 0.211554
14.9881 -24.6085 10.8001 0.402633 -0.883047 0.241072
15.5552 -24.2427 11.4404 0.301236 -0.939375 0.1638
14.9697 -25.8005 8.40207 0.441467 -0.763187 0.471861
15.4978 -25.0716 9.16635 0.390912 -0.800624 0.45408
16.673 -23.9503 9.18316 0.808499 -0.491274 0.324004
17.0977 -23.6019 8.49854 0.883398 -0.393566 0.25439
16.6575 -20.257 9.25802 0.935721 0.346651 -0.0652556
17.0026 -21.1415 8.64956 0.902435 0.430466 -0.0175921
14.5371 -17.8518 10.6554 -0.0910311 0.885909 -0.454838
14.984 -17.5026 11.2662 -0.0656653 0.892549 -0.446144
14.4908 -18.8743 8.77392 0.0326349 0.890355 -0.454097
14.9262 -18.5594 9.31223 -0.100674 0.846468 -0.522835
16.5833 -19.6754 10.4543 0.929642 0.336987 -0.149016
16.8422 -20.1761 11.0933 0.944359 0.312097 -0.103836
17.0146 -22.1211 11.2098 0.997277 -0.0735953 0.00477889
17.0422 -21.6225 10.5728 0.998332 -0.053893 -0.0207167
16.6936 -23.2967 10.6245 0.864785 -0.499386 0.0525323
16.4075 -23.6538 11.2865 0.829591 -0.547715 0.10857
17.4385 -24.0493 7.20806 0.768675 -0.411032 0.490092
17.5544 -24.7007 6.68039 0.790499 -0.106728 0.603093
14.9718 -24.0017 12.8299 0.315673 -0.85328 0.415047
15.5294 -23.638 13.3427 0.171407 -0.935201 0.309869
16.6643 -22.792 13.1481 0.775449 -0.616949 0.134364
16.3868 -23.3373 12.5925 0.825517 -0.533279 0.184756
17.0525 -21.1735 13.0097 0.995953 -0.0880032 0.0182522
17.0061 -21.9329 12.4273 0.996971 -0.0713395 0.0309901
16.6291 -19.009 12.9445 0.954674 0.282391 -0.0940879
16.861 -19.9153 12.3127 0.947324 0.314376 -0.0611878
16.0694 -17.9347 12.3521 0.802599 0.574237 -0.16151
15.7816 -17.313 13.0931 0.807559 0.565103 -0.168842
14.6693 -16.7682 13.415 0.0509811 0.958222 -0.281446
15.0485 -16.9947 12.6144 -0.00574842 0.970373 -0.241542
15.1334 -27.0112 6.99478 0.38104 -0.538776 0.751351
15.506 -27.609 6.43403 0.200642 -0.515686 0.832953
11.4675 -28.0301 0.202211 -0.157763 0.0666878 -0.985223
11.1341 -29.2329 0.310882 -0.0052545 -0.211679 -0.977325
10.6812 -28.2182 0.581463 -0.726937 0.197029 -0.657831
10.4932 -30.06 3.78308 -0.951702 -0.205788 0.22785
11.718 -28.4826 0.284304 0.407475 -0.324 -0.853808
12.3763 -29.2314 5.10998 -0.366478 -0.636944 0.67823
11.9295 -28.6203 0.386229 -0.436281 -0.29476 -0.850162
13.273 -28.5525 -0.442584 0.0455947 0.186151 -0.981463
11.2544 -26.7749 0.223506 -0.525442 0.0223121 -0.850537
15.1319 -22.1412 0.711755 -0.0529653 0.944995 -0.322767
15.9567 -23.9776 -0.071378 0.278987 0.150231 -0.948471
14.9155 -25.6166 -0.471357 0.0869057 0.0944706 -0.991727
14.6805 -29.9419 4.66643 0.0677187 -0.630355 0.773348
16.8845 -28.0377 4.61921 0.620238 -0.471139 0.627163
14.2958 -28.3225 -0.191672 -0.111544 -0.114713 -0.987116
16.2713 -25.8121 0.039407 0.362259 0.0105094 -0.932018
18.8118 -26.1036 0.843998 0.870995 0.101279 -0.480739
10.8768 -23.6694 5.59693 -0.943602 0.31021 0.115696
11.1262 -22.9578 6.14955 -0.971676 0.231443 0.0477383
10.5731 -24.0548 2.89404 -0.917782 0.397059 -0.00462496
10.7927 -23.51 3.25923 -0.925728 0.376318 -0.0375711
11.0121 -24.2291 0.876267 -0.808741 0.426967 -0.404521
11.0542 -23.824 1.19578 -0.807159 0.403948 -0.430488
11.7035 -24.3429 0.183029 -0.518058 0.30125 -0.80054
11.5737 -24.0087 0.392975 -0.518187 0.301729 -0.800276
11.4702 -26.0102 0.112965 -0.529411 0.0309805 -0.847799
11.2003 -25.8574 0.294626 -0.549967 0.0487758 -0.833761
11.7055 -26.6888 0.0206313 -0.284651 -0.0957766 -0.953835
11.7726 -27.2749 0.0799657 -0.230789 -0.149859 -0.961394
10.8585 -30.568 1.49033 -0.327122 -0.848322 -0.416343
11.0285 -30.492 1.17968 -0.372798 -0.848718 -0.375099
11.2208 -30.736 3.96101 -0.206178 -0.928997 0.307335
11.3688 -30.8853 3.50909 -0.09685 -0.970406 0.221207
11.4236 -28.0401 6.13582 -0.38038 -0.448963 0.808544
11.6078 -28.8859 5.6787 -0.157757 -0.561712 0.812153
12.0844 -28.6683 0.14694 -0.893714 -0.208034 -0.397489
12.2726 -28.2016 -0.0516267 -0.385576 0.109537 -0.916151
12.091 -29.7386 0.330227 -0.953664 -0.032358 -0.29913
12.2071 -29.4717 0.0384317 -0.902493 0.0458958 -0.428253
12.1661 -31.0431 1.24967 -0.969331 -0.242334 0.0408842
12.221 -31.2077 0.822539 -0.964809 -0.252492 -0.073429
12.5086 -31.1521 3.50624 -0.951029 -0.246519 0.186474
12.5464 -31.5679 3.19258 -0.953829 -0.224266 0.199786
12.5019 -28.7639 5.66374 -0.539679 -0.590951 0.599603
12.6919 -29.5856 5.27798 -0.909224 -0.251804 0.331523
10.5293 -26.3195 0.997455 -0.859785 0.10245 -0.500273
10.7253 -26.5109 0.68721 -0.768954 0.0169041 -0.63908
10.6321 -25.0546 1.12198 -0.881326 0.141413 -0.45085
10.7504 -25.4156 0.805958 -0.860228 0.106903 -0.498577
10.1274 -27.3843 2.68661 -0.999326 0.0336705 0.0146052
10.1427 -26.7862 2.52462 -0.999407 0.0269145 0.0214612
12.2835 -25.3082 -0.1312 -0.164696 0.0613218 -0.984436
12.5665 -25.869 -0.219226 -0.143575 0.101294 -0.984442
11.2602 -24.9243 0.350303 -0.542668 0.0907501 -0.835031
11.5142 -25.1748 0.149216 -0.568177 0.12418 -0.813483
12.0003 -29.0448 5.43819 0.594882 -0.483729 0.641967
12.1659 -28.5273 5.75396 0.151495 -0.667978 0.728597
10.726 -25.5681 5.90953 -0.969769 -0.0137199 0.243639
10.6367 -24.9538 5.46924 -0.982351 0.0383935 0.183065
10.2282 -25.7282 2.71197 -0.992469 0.117731 0.0338225
10.3067 -25.1353 3.12544 -0.99366 0.111078 0.0173459
10.6356 -27.7919 5.14347 -0.949547 -0.100374 0.297127
10.5408 -27.0482 5.00919 -0.967574 -0.0454421 0.248466
10.2633 -29.7047 1.90413 -0.989355 -0.138851 -0.04356
10.2153 -29.272 1.74019 -0.991874 -0.116281 -0.0516229
11.9567 -30.7941 3.17503 0.418999 -0.906579 0.0505433
11.8229 -30.7952 3.6684 0.341864 -0.928707 0.143641
11.6371 -30.4555 1.23634 0.329508 -0.810426 -0.484391
11.4645 -30.6261 1.42401 0.295004 -0.838756 -0.457668
11.6822 -29.125 0.502866 0.423863 -0.301129 -0.854202
11.4734 -29.3786 0.463038 0.524223 -0.246173 -0.815224
12.5406 -26.7402 -0.195898 -0.180896 -0.0988829 -0.978519
12.2622 -27.2854 -0.054065 -0.309536 -0.125252 -0.942602
11.6374 -22.1335 5.54223 -0.65797 0.744237 -0.114832
12.0967 -21.5712 6.01219 -0.731566 0.652614 -0.197247
11.4422 -22.7578 2.96353 -0.546469 0.822815 -0.156038
11.9112 -22.3506 3.30288 -0.576689 0.785069 -0.226044
11.7506 -23.2436 0.951205 -0.4687 0.794069 -0.387007
12.0651 -22.8912 1.30176 -0.465899 0.800049 -0.377969
12.1965 -23.6156 0.220743 -0.387814 0.509457 -0.76815
12.3314 -23.2557 0.459462 -0.360921 0.666954 -0.65185
13.0247 -21.1349 5.37316 -0.342389 0.889031 -0.303963
13.5718 -20.7129 5.83687 -0.414137 0.830686 -0.372091
12.9369 -21.9216 2.99353 -0.30388 0.911285 -0.27788
13.5259 -21.6345 3.28508 -0.306209 0.908912 -0.283046
13.1208 -22.5065 1.03956 -0.337877 0.862988 -0.375621
13.6293 -22.19 1.37232 -0.311199 0.898171 -0.310555
13.1065 -23.0217 0.262683 -0.372205 0.661199 -0.651367
13.5813 -22.6249 0.492218 -0.305787 0.78327 -0.541278
14.4683 -30.0573 4.85322 0.824134 -0.318155 0.468593
14.2169 -29.4197 5.46208 0.356868 -0.421821 0.833494
14.702 -32.1296 2.57908 0.782456 -0.606797 0.139857
14.5263 -32.2375 3.12179 0.788364 -0.601527 0.129024
14.4926 -31.5394 0.436785 0.677005 -0.443908 -0.587035
14.2853 -31.9614 0.566345 0.637072 -0.535015 -0.554886
14.1435 -29.3269 -0.213862 0.486327 -0.00407661 -0.873767
13.9724 -29.8829 -0.347242 0.555342 0.0771116 -0.828039
13.8871 -27.9463 -0.218982 -0.00221527 -0.0984444 -0.99514
13.7275 -28.474 -0.302132 0.413462 0.244984 -0.876944
13.6527 -26.4433 -0.32172 -0.0357251 -0.0677329 -0.997064
13.5227 -27.0259 -0.285063 -0.0094959 -0.0511762 -0.998644
13.2463 -30.0008 5.43193 -0.277027 -0.4779 0.833587
12.969 -29.1633 5.84093 -0.205379 -0.501241 0.840581
13.1603 -32.283 3.15852 -0.513976 -0.808334 0.287099
12.9638 -31.9908 3.65157 -0.498667 -0.822429 0.273754
12.8231 -31.7713 0.375825 -0.556758 -0.693878 -0.456676
12.6016 -31.8469 0.782468 -0.583337 -0.694981 -0.420381
12.7412 -29.5364 -0.439495 -0.527275 0.00312069 -0.849689
12.5216 -29.9465 -0.315543 -0.493586 0.0245808 -0.86935
12.9346 -28.085 -0.307903 -0.209621 0.24118 -0.947571
12.6149 -28.595 -0.284087 -0.528879 0.130481 -0.838607
13.0759 -26.6242 -0.289696 -0.0833862 -0.0554544 -0.994973
12.8707 -27.1464 -0.217275 -0.186591 -0.0981301 -0.977525
12.2832 -30.8282 3.05018 -0.644988 -0.736468 0.203975
12.2721 -30.7236 3.40285 -0.628438 -0.752447 0.197204
11.9782 -30.5232 1.23983 -0.646055 -0.705437 -0.291497
11.9465 -30.5708 1.45864 -0.714644 -0.6686 -0.205568
11.8815 -29.5528 0.674854 -0.557522 -0.202923 -0.804979
11.9564 -29.2938 0.56919 -0.404359 -0.198702 -0.892755
12.2463 -26.2373 -0.169564 -0.222761 0.0778826 -0.971757
12.067 -25.8883 -0.120471 -0.231371 0.00725107 -0.972839
13.0596 -24.2281 -0.135833 -0.10051 0.181819 -0.978182
13.33 -25.0442 -0.271814 -0.234123 0.0110756 -0.972144
12.9229 -25.4807 -0.238327 -0.119909 0.101078 -0.987626
12.5968 -24.7659 -0.125185 -0.11896 0.102421 -0.987602
13.8338 -24.5662 -0.284738 -0.126429 0.166145 -0.977963
13.7459 -23.7198 -0.124941 -0.117379 0.175694 -0.977422
10.9291 -27.3393 5.9978 -0.82005 -0.223698 0.526761
11.0321 -28.3561 5.65952 -0.735799 -0.31628 0.598805
10.7233 -30.3438 4.04107 -0.724844 -0.596155 0.345254
10.8168 -30.6177 3.70197 -0.675977 -0.671898 0.302667
10.4295 -30.1712 1.70711 -0.846016 -0.48196 -0.227973
10.5259 -30.1882 1.32867 -0.874723 -0.454523 -0.168133
10.7997 -28.5972 0.407199 -0.578354 0.0856993 -0.811272
11.0924 -28.5268 0.268616 -0.294676 0.0271049 -0.955213
13.436 -29.5268 -0.535324 0.0534624 0.0169359 -0.998426
13.2239 -30.0007 -0.55605 0.0584539 0.0199025 -0.998092
13.69 -31.9339 0.223587 -0.0543652 -0.772813 -0.632301
13.4269 -32.1552 0.544562 -0.107897 -0.799558 -0.590818
14.0146 -32.5279 2.9294 -0.0246137 -0.95779 0.286413
13.7637 -32.3661 3.48129 0.000158578 -0.964078 0.26562
13.8923 -30.1428 5.23986 0.372472 -0.417127 0.829017
13.6006 -29.3817 5.75615 0.38061 -0.41698 0.825387
10.2213 -29.0082 2.95362 -0.986797 -0.0985176 0.128552
10.2786 -28.7305 3.48251 -0.981743 -0.0752798 0.17468
10.3109 -28.1155 1.19448 -0.947595 0.00679212 -0.319403
10.2057 -27.9455 1.56113 -0.966587 0.0270117 -0.254911
11.3064 -30.1925 4.64782 0.0383272 -0.586894 0.808756
11.5451 -29.8781 4.91946 -0.209331 -0.631132 0.746896
10.4484 -29.4052 3.97409 -0.953415 -0.108101 0.281629
10.5595 -29.0784 4.45746 -0.949453 -0.105114 0.295786
10.1305 -28.346 2.40222 -0.998413 -0.0530935 -0.0187771
10.1529 -28.6145 1.99297 -0.998345 -0.0536644 -0.02069
10.5686 -27.3673 0.805553 -0.799461 0.0956898 -0.593048
10.8279 -27.4787 0.52351 -0.635612 -0.00671533 -0.77198
12.1248 -29.9926 4.52135 0.511529 -0.620801 0.594091
11.9136 -30.3315 4.39195 0.61244 -0.543751 0.573806
12.4354 -30.1421 4.29848 -0.354023 -0.626281 0.694579
12.3495 -30.3858 4.02562 -0.440385 -0.608078 0.660532
12.5834 -30.8038 4.13177 -0.937957 -0.202342 0.281593
12.7143 -30.7147 4.55752 -0.901552 -0.219941 0.372599
13.3117 -31.1943 4.70244 -0.309583 -0.556508 0.77101
13.0568 -31.4859 4.39097 -0.304981 -0.555875 0.773298
14.5972 -31.0739 4.01888 0.824277 -0.249337 0.508329
14.5018 -31.6434 3.88688 0.818512 -0.260673 0.511944
12.9751 -21.4568 4.42227 -0.343691 0.901897 -0.261645
13.5295 -21.401 3.97523 -0.303725 0.898074 -0.318142
11.5361 -22.3597 4.52241 -0.657894 0.748497 -0.0832384
11.9458 -22.1192 4.04147 -0.578142 0.787241 -0.214483
10.704 -23.8287 4.54671 -0.945182 0.310968 0.0996496
10.8521 -23.3433 4.07951 -0.926932 0.375064 0.0111546
10.3911 -25.7498 4.32441 -0.981919 0.0379607 0.185457
10.3782 -25.0759 3.95783 -0.988114 0.0950729 0.120795
10.2345 -26.9759 3.58711 -0.983288 -0.0141759 0.181506
10.2949 -27.66 3.8316 -0.98132 -0.0255461 0.190678
10.3939 -30.0865 3.0462 -0.98066 -0.174822 0.0879972
10.2917 -29.7093 2.70832 -0.9771 -0.191546 0.0926599
10.955 -30.7984 2.26656 -0.280923 -0.953852 -0.106062
11.2331 -30.9111 2.66613 -0.214832 -0.97247 -0.0902723
11.8422 -30.7879 2.48382 0.311627 -0.932296 -0.183609
11.5727 -30.8148 2.13424 0.334926 -0.925885 -0.17482
12.169 -30.8253 2.33443 -0.686477 -0.727059 0.0115522
12.0434 -30.7145 1.9959 -0.671505 -0.7409 0.0121758
12.26 -31.2014 1.807 -0.95651 -0.267759 0.115731
12.412 -31.6202 2.20909 -0.967016 -0.236078 0.0956424
13.0296 -32.341 2.10213 -0.579164 -0.814521 -0.0335243
12.6986 -32.1011 1.61169 -0.541527 -0.840506 -0.0172808
14.6762 -32.1319 1.83236 0.710008 -0.678197 -0.189573
14.4038 -32.2865 1.39182 0.699423 -0.686478 -0.198886
12.9592 -22.1146 2.34564 -0.303173 0.909355 -0.284885
13.564 -22.0048 2.02662 -0.317432 0.910972 -0.263377
11.4775 -22.8987 2.26209 -0.535769 0.813794 -0.225147
11.9688 -22.6845 1.95355 -0.491864 0.824133 -0.280845
10.6226 -24.0897 2.19113 -0.903563 0.39771 -0.159374
10.8775 -23.6858 1.85488 -0.880039 0.427687 -0.206436
10.4192 -25.0533 1.77774 -0.977717 0.131558 -0.163593
10.2913 -25.6114 2.06718 -0.974686 0.140033 -0.174294
10.2831 -26.5166 1.60291 -0.979429 0.051339 -0.195151
10.1986 -27.079 1.80839 -0.970898 0.0862683 -0.223417
10.3675 -28.6368 1.01363 -0.948162 0.00903637 -0.31766
10.3246 -29.1244 1.1275 -0.948161 0.00937726 -0.317651
10.8748 -29.7616 0.565939 -0.267139 -0.525922 -0.807492
11.0117 -30.1193 0.754102 -0.265652 -0.527368 -0.807039
11.5969 -30.1893 0.944542 0.375698 -0.492136 -0.785273
11.4076 -29.9872 0.706634 0.423122 -0.528985 -0.735624
11.934 -30.2271 0.945924 -0.638847 -0.408963 -0.651632
11.862 -30.0085 0.872934 -0.59855 -0.442384 -0.667858
12.0881 -30.2162 0.50888 -0.9553 -0.182096 -0.232899
12.1873 -30.6769 0.375662 -0.966913 -0.117975 -0.226191
12.7599 -31.1293 -0.116732 -0.536047 -0.36188 -0.762691
12.5046 -30.674 -0.156965 -0.527128 -0.371105 -0.764472
14.398 -31.0027 0.117923 0.610205 -0.192791 -0.768428
14.0866 -30.7776 -0.196386 0.632097 -0.20198 -0.748103
10.827 -29.3536 4.8954 -0.729692 -0.304741 0.612113
10.946 -29.9643 4.67001 -0.620323 -0.43212 0.654578
10.5669 -30.4815 2.92972 -0.770911 -0.636554 -0.0222527
10.6309 -30.5709 2.39482 -0.814024 -0.57984 0.0339169
10.469 -29.5741 0.913006 -0.800862 -0.201696 -0.563861
10.6304 -29.4655 0.624867 -0.843914 -0.18912 -0.502038
13.5613 -30.8862 -0.393084 0.037366 -0.352348 -0.935123
13.3137 -31.274 -0.23597 -0.0303555 -0.397518 -0.917092
13.8472 -32.5005 1.36882 -0.071935 -0.98629 -0.148516
13.6048 -32.5566 1.97915 -0.120612 -0.986393 -0.111718
14.0501 -31.8017 4.17355 0.252157 -0.530914 0.809041
13.7693 -31.3207 4.60515 0.330297 -0.550835 0.766475
14.6227 -22.6084 0.11833 -0.179497 0.803233 -0.567977
14.4947 -22.4212 0.391999 -0.1481 0.764401 -0.627501
15.535 -22.9888 0.0394067 0.268621 0.507165 -0.818918
15.5559 -22.6771 0.228464 0.267756 0.475661 -0.837886
15.2308 -25.2602 -0.333912 0.276867 0.286402 -0.917234
15.1066 -24.8165 -0.294735 0.242838 0.0259281 -0.96972
15.9044 -26.3633 -0.321964 0.55719 0.357094 -0.749682
15.8449 -25.7075 -0.161355 0.464326 0.0693119 -0.882948
16.3916 -22.7156 0.599102 0.430805 0.698235 -0.571729
16.0956 -22.3669 0.808723 0.430127 0.711451 -0.555723
17.8482 -23.0665 2.9494 0.771952 0.633507 -0.0525267
18.2216 -23.5395 3.21859 0.797016 0.602358 0.0439315
17.6565 -23.2757 1.26714 0.714922 0.628404 -0.306585
18.1379 -23.7064 1.51171 0.717733 0.627497 -0.301839
18.7862 -24.6844 3.29183 0.955082 0.281289 0.0932425
19.0101 -25.3442 3.05132 0.950525 0.290293 0.110601
18.8038 -25.294 1.25812 0.916642 0.288495 -0.276654
18.7205 -24.7644 1.49611 0.911517 0.267957 -0.311987
18.3117 -24.4576 5.24872 0.93407 0.242164 0.262432
18.0125 -23.6153 5.66918 0.956031 0.166437 0.241461
17.8366 -27.165 5.36902 -0.015881 -0.57236 0.819849
17.4252 -26.7727 5.63684 -0.00600612 -0.571621 0.820496
18.9156 -28.6885 3.03596 0.680496 -0.720147 0.135324
18.647 -28.8786 3.34344 0.666167 -0.731579 0.144965
18.6338 -27.7175 0.872609 0.556639 -0.486375 -0.673493
18.538 -28.1464 1.0828 0.57971 -0.436569 -0.687999
17.7309 -25.577 -0.00919867 0.149706 -0.114977 -0.982022
17.7785 -26.189 0.0715933 0.144363 -0.121501 -0.982037
16.7517 -24.3545 -0.0207403 0.081814 0.239166 -0.967526
17.0052 -24.9112 -0.0919417 0.00475157 0.0412334 -0.999138
16.2728 -21.2524 5.22255 0.568176 0.768016 -0.29551
16.6498 -21.3755 5.69771 0.610352 0.755464 -0.238212
17.398 -23.3933 0.774423 0.570228 0.521527 -0.634704
17.6823 -23.957 0.53619 0.584523 0.572284 -0.575173
14.6767 -20.7671 5.26295 0.0954638 0.912064 -0.398781
15.2009 -20.5974 5.76054 0.0829847 0.907995 -0.410681
14.6919 -21.5556 2.98727 0.0351059 0.953502 -0.299335
15.2841 -21.5123 3.2685 0.0746426 0.971886 -0.223308
14.7271 -22.0284 1.14473 -0.0595445 0.95482 -0.291159
15.2442 -21.918 1.50651 -0.0111768 0.981249 -0.192421
17.6741 -22.7013 5.65748 0.868802 0.494681 0.0217516
17.5163 -22.4781 5.1724 0.833813 0.545354 -0.0856992
16.3996 -21.928 2.98166 0.491661 0.848616 -0.195243
16.9143 -22.1985 3.24379 0.540419 0.836714 -0.0886391
16.2554 -22.2415 1.27316 0.494411 0.838237 -0.230035
16.8099 -22.4726 1.55626 0.466055 0.839473 -0.279423
18.4353 -25.4661 5.40689 0.913217 0.0756992 0.400381
18.1356 -25.4007 5.88685 0.732005 -0.0860628 0.675842
19.2659 -26.5002 3.13748 0.982467 0.136985 0.126467
19.2796 -27.008 3.55639 0.981936 0.132766 0.134815
18.9832 -26.0883 1.25243 0.941785 0.0858389 -0.325075
19.1041 -26.5762 1.46205 0.938332 0.0950721 -0.332407
18.4339 -24.8496 0.766457 0.806411 0.235068 -0.542626
18.5166 -25.4062 0.635759 0.816872 0.259392 -0.515204
17.3083 -27.5863 4.9384 -0.378344 -0.626251 0.681664
16.9148 -27.304 5.20947 0.50152 -0.566265 0.654081
18.2236 -29.1093 2.74156 -0.0196728 -0.997998 0.0601088
17.9139 -29.0865 2.94883 -0.0434419 -0.996557 0.0706238
18.0354 -28.2116 0.855945 0.194941 -0.620562 -0.75954
17.8538 -28.5157 1.04492 0.226546 -0.579736 -0.782677
17.1947 -26.0671 0.066229 -0.17406 -0.263336 -0.948872
17.1974 -26.6858 0.237486 -0.174147 -0.263473 -0.948818
16.7638 -28.4704 4.78209 0.953271 -0.0312035 0.3005
16.5225 -28.1991 5.31602 0.719531 -0.188812 0.6683
17.5178 -30.1455 2.61875 0.993099 0.0449394 0.108331
17.445 -30.6283 3.14861 0.976924 0.0182864 0.212804
17.3478 -29.4107 0.661036 0.958659 0.022259 -0.283686
17.427 -30.2826 0.817173 0.951637 0.0404573 -0.304548
16.4638 -27.0162 -0.072353 0.727273 0.209027 -0.653744
16.5747 -27.9093 -0.217194 0.72477 0.188111 -0.662815
16.3942 -24.9821 -0.101614 0.0152577 0.0514306 -0.99856
16.536 -25.5261 -0.0242353 -0.0634169 -0.367355 -0.927916
15.4606 -24.1795 -0.213943 0.201941 0.017503 -0.979241
15.6446 -24.6274 -0.172978 0.201513 -0.0227428 -0.979222
16.3881 -29.2317 5.09104 0.594256 -0.275661 0.75556
16.0258 -28.7889 5.53036 0.574384 -0.279759 0.769297
17.2857 -31.6012 2.99897 0.740774 -0.537502 0.402921
16.9861 -31.6948 3.43935 0.754052 -0.529536 0.388583
17.1626 -30.9231 0.442229 0.723355 -0.33531 -0.603594
17.0725 -31.4958 0.694929 0.696292 -0.410756 -0.588606
16.0854 -27.942 -0.614653 0.444765 0.0495894 -0.894274
16.1369 -28.7717 -0.627821 0.432056 0.0339403 -0.901208
15.4082 -26.3504 -0.52557 0.0410699 0.128081 -0.990913
15.4783 -27.0361 -0.673419 0.177183 0.294436 -0.939103
15.0492 -30.0129 4.92287 -0.73076 -0.461179 0.503293
14.7561 -29.3101 5.25596 -0.374591 -0.632584 0.677879
15.7003 -32.2719 2.84235 -0.6815 -0.715548 0.153459
15.402 -31.9551 3.04587 -0.654335 -0.743262 0.139309
15.6954 -31.7521 0.524403 -0.564524 -0.661867 -0.493199
15.4483 -31.7849 0.817255 -0.496252 -0.646232 -0.579757
14.997 -29.0496 -0.472332 -0.650652 -0.291317 -0.701275
14.9579 -29.6253 -0.221502 -0.607398 -0.2494 -0.754233
14.5064 -27.5319 -0.52305 -0.518476 -0.0610009 -0.852914
14.5202 -28.1553 -0.395929 -0.655402 -0.283661 -0.699989
14.0813 -26.0138 -0.459327 -0.227128 0.00398831 -0.973857
14.0779 -26.6981 -0.396091 -0.408277 -0.153018 -0.899942
17.5337 -29.3353 2.78415 0.847602 -0.500036 0.17758
17.6319 -29.249 2.4579 0.908916 -0.399196 0.120472
14.9889 -31.8028 2.84503 0.0735852 -0.973932 0.214575
15.095 -31.8799 2.4926 0.00111587 -0.972969 0.230933
17.4879 -28.5306 0.833592 0.806996 -0.237291 -0.540788
17.4817 -28.8767 0.974612 0.808645 -0.232137 -0.54056
16.7196 -26.5141 0.213183 0.374112 0.000751817 -0.927383
16.8528 -27.0624 0.262033 0.394744 0.0201851 -0.918569
14.9854 -31.3517 0.61495 0.0911292 -0.676207 -0.731054
14.9049 -31.5482 0.791816 0.0580465 -0.691588 -0.719956
14.5525 -29.1894 -0.0999073 -0.0894875 -0.152812 -0.984195
14.5599 -29.6661 -0.038947 0.0165751 -0.105856 -0.994243
14.4781 -23.3167 -0.131525 -0.143197 0.121796 -0.982171
14.4335 -24.0464 -0.247918 -0.0262465 0.207386 -0.977907
15.0909 -23.2423 -0.15851 0.0131728 0.147569 -0.988964
14.9672 -23.639 -0.219307 0.0129941 0.14747 -0.988981
15.3228 -29.257 5.53028 0.169499 -0.459225 0.871999
15.7444 -29.8016 5.18354 0.0900936 -0.456632 0.885082
16.1883 -32.21 3.43236 0.350502 -0.846778 0.400144
16.5625 -32.2497 3.05961 0.298507 -0.852642 0.42883
16.331 -32.0634 0.706877 0.274703 -0.679645 -0.680163
16.5266 -31.6268 0.369323 0.303756 -0.647277 -0.699118
15.5504 -29.3582 -0.628227 -0.0877187 -0.161053 -0.98304
15.5525 -28.5612 -0.75795 -0.0849531 -0.158532 -0.983692
14.9853 -27.6292 -0.729177 -0.279638 0.0310561 -0.959603
14.9627 -26.9337 -0.657813 -0.170864 0.159516 -0.972296
14.4871 -26.1522 -0.514923 -0.0291178 0.0591081 -0.997827
14.5101 -25.5207 -0.476315 -0.0228971 0.065084 -0.997617
15.7396 -23.3486 -0.011556 0.338965 0.133284 -0.93131
16.112 -23.5434 0.0702117 0.265453 0.259835 -0.928451
17.0273 -23.7859 0.253579 0.250431 0.265272 -0.931083
17.3783 -24.4163 0.1063 0.34379 0.485796 -0.803623
18.116 -25.144 0.258213 0.65367 0.147847 -0.742197
18.2151 -25.7481 0.213915 0.669293 0.176786 -0.72166
18.9568 -27.0496 1.07873 0.888475 -0.0884431 -0.450322
18.9852 -27.5022 1.23 0.887969 -0.0996235 -0.448984
19.3069 -27.8607 3.21599 0.94566 -0.290626 0.14582
19.1574 -28.1528 3.55729 0.93642 -0.31151 0.161489
18.2354 -26.504 5.52622 0.53539 -0.288501 0.793804
17.845 -26.2153 5.89303 0.529563 -0.291282 0.796692
14.8955 -30.9518 3.83283 0.0664658 -0.620374 0.781485
14.9087 -31.3413 3.51974 0.0419767 -0.627623 0.777385
15.3607 -31.1814 4.21191 -0.713895 -0.527266 0.460808
15.2827 -31.4885 3.71139 -0.737492 -0.531412 0.416781
16.9245 -30.7977 4.10219 0.565948 -0.28504 0.773599
16.5366 -30.5735 4.48055 0.596907 -0.279018 0.75223
17.0527 -29.1937 3.96978 0.917202 0.0214523 0.397845
17.1738 -30.0042 3.83258 0.908763 0.0983241 0.405563
17.2397 -28.6506 3.80153 0.624645 -0.473918 0.620661
17.3398 -29.0075 3.45122 0.687503 -0.382592 0.617222
17.7539 -28.4852 4.17201 -0.213325 -0.788857 0.576366
17.7156 -28.8159 3.6254 -0.302614 -0.843754 0.443288
18.3414 -28.0185 4.59588 0.218864 -0.70603 0.673513
18.3756 -28.5252 4.09731 0.269876 -0.637554 0.72159
18.8106 -26.0333 4.5806 0.939913 0.0613066 0.335865
19.0156 -26.7353 4.30401 0.904347 0.175048 0.389249
18.7836 -25.1241 4.02895 0.929186 0.289535 0.229745
18.5066 -24.3883 4.34976 0.955561 0.237513 0.174614
18.0898 -23.4143 3.89419 0.797025 0.602364 0.0436916
17.6655 -22.8143 4.28458 0.836023 0.54707 -0.0421924
16.3372 -21.6121 4.31603 0.581042 0.781073 -0.228724
16.8633 -22.0715 3.90338 0.536319 0.83236 -0.139778
14.684 -21.1333 4.3522 0.0993142 0.937389 -0.333824
15.2726 -21.3234 3.94328 0.0724042 0.952038 -0.297289
15.1019 -31.8904 1.7562 0.0410522 -0.981108 -0.189057
14.97 -31.8156 1.36191 0.00571247 -0.980305 -0.197407
15.7911 -32.3624 1.92128 -0.600164 -0.791428 -0.115949
15.4997 -32.0562 1.38841 -0.610632 -0.781406 -0.128584
17.3699 -31.6087 1.55967 0.818993 -0.564201 -0.104533
17.1681 -31.9631 2.08092 0.788072 -0.610887 -0.0758872
17.5351 -30.092 1.95818 0.998369 0.00688728 -0.0566712
17.5404 -30.6597 1.60819 0.999245 0.037712 -0.00931143
17.6365 -29.1482 1.81505 0.885606 -0.40262 -0.231516
17.5556 -29.1809 1.48074 0.93977 -0.307287 -0.149692
18.2337 -28.9528 1.95583 0.175984 -0.89049 -0.419593
17.9285 -28.8292 1.52025 0.244555 -0.89677 -0.368778
18.92 -28.5405 2.18561 0.726886 -0.603517 -0.327727
18.6616 -28.5741 1.70735 0.696152 -0.621543 -0.359246
19.2778 -26.4841 2.49195 0.989518 0.120284 -0.0799108
19.2776 -26.8847 2.12237 0.987257 0.0819813 -0.136389
18.8492 -24.7506 2.39693 0.957501 0.280775 -0.0660146
19.0063 -25.345 2.10619 0.956704 0.285387 -0.0571983
17.8421 -23.1373 2.39271 0.766314 0.6307 -0.122394
18.235 -23.6532 2.08019 0.756726 0.649267 -0.0762799
16.3899 -22.0462 2.40791 0.49398 0.852124 -0.172826
16.8984 -22.3875 2.11335 0.480013 0.866875 -0.134594
14.7077 -21.733 2.37669 0.0350724 0.965325 -0.258684
15.2902 -21.8079 2.08417 -0.0118755 0.983455 -0.180763
14.8753 -30.7874 0.283978 0.0883717 -0.347242 -0.933602
14.7002 -30.4472 0.141982 0.0779657 -0.34643 -0.93483
15.4976 -30.9738 0.0195747 -0.523327 -0.440795 -0.729266
15.1403 -30.4422 -0.0185457 -0.589002 -0.391555 -0.706939
16.7122 -29.6462 -0.257103 0.574584 -0.120676 -0.809501
16.7021 -30.3805 -0.137296 0.554537 -0.158218 -0.81698
17.1814 -28.8798 0.386554 0.819956 0.0943386 -0.5646
16.981 -28.9859 0.0582637 0.84452 0.0955559 -0.52693
17.3366 -28.0341 0.578943 0.555827 -0.0843969 -0.827003
17.1641 -27.8494 0.445482 0.546067 -0.0863868 -0.833276
17.836 -27.6113 0.485471 0.0450643 -0.374764 -0.926024
17.5031 -27.4189 0.419797 -0.107026 -0.343074 -0.933191
18.4094 -27.1715 0.468809 0.362186 -0.288648 -0.886286
18.1141 -27.0001 0.308525 0.280057 -0.288828 -0.915503
15.794 -31.1018 4.45413 0.135324 -0.517256 0.845064
16.224 -31.4308 4.19046 0.114487 -0.515868 0.848984
16.3692 -32.4798 2.09205 0.36412 -0.925699 -0.102455
16.6752 -32.2868 1.55373 0.39788 -0.909368 -0.121419
16.0392 -30.9766 -0.124372 0.084953 -0.357485 -0.930047
16.1247 -30.303 -0.378291 0.0784932 -0.363968 -0.928098
18.6305 -26.3111 0.554885 0.789634 -0.00167162 -0.613576
18.6546 -26.7692 0.58 0.792579 0.015326 -0.609576
19.2312 -27.5904 1.99021 0.955313 -0.203047 -0.214822
19.2152 -28.0191 2.33256 0.95443 -0.209207 -0.212827
18.9767 -27.5729 4.37667 0.729663 -0.295705 0.616563
18.6439 -27.5778 4.73658 0.665565 -0.342264 0.663233
-10.9443 -9.69552 36.3835 0.751819 0.592136 -0.290075
-9.12434 -11.7501 37.7097 0.839542 0.385169 -0.383163
-12.8533 -31.4502 47.2757 -0.877327 -0.383228 -0.288847
-14.5496 -24.0021 44.0688 -0.924534 -0.258501 -0.280023
-13.1414 -21.1499 36.7953 -0.464106 -0.882878 -0.0716417
-14.1197 -21.287 39.5888 -0.720416 -0.660566 -0.211313
-8.44078 -28.4484 40.3583 0.0274107 -0.477599 -0.87815
-9.10117 -29.9878 41.334 -0.194952 -0.560358 -0.80498
-10.4333 -8.93355 40.8421 0.285615 0.955873 -0.0687855
-10.0969 -9.43681 39.2741 0.727602 0.622134 -0.289041
-8.60625 -11.618 38.7933 0.814979 0.372461 -0.443939
-7.8907 -12.1206 39.5302 0.728182 0.467445 -0.501244
-7.68099 -14.0878 37.8792 0.757094 0.543332 -0.362766
-7.51138 -13.3958 38.9366 0.742824 0.438682 -0.505738
-8.85233 -10.3707 40.1435 0.557005 0.745783 -0.365448
-9.54777 -10.1573 39.2154 0.777001 0.561205 -0.285164
-9.42133 -21.0987 35.2532 0.755324 -0.595189 -0.274292
-8.93121 -20.2509 34.8186 0.762597 -0.576437 -0.293542
-7.83963 -18.8343 36.241 0.952828 -0.164681 -0.25495
-7.74874 -18.0365 35.9096 0.945778 -0.250991 -0.206176
-7.20893 -16.4523 37.4422 0.976402 -0.032897 -0.213441
-7.40676 -15.5642 37.0719 0.887372 0.226962 -0.401322
-9.13504 -25.7701 38.6824 0.0502604 -0.564415 -0.82396
-8.07063 -23.8278 37.9389 0.367597 -0.372353 -0.852189
-8.88432 -22.1848 36.6403 0.453669 -0.628291 -0.632009
-8.22056 -21.0639 36.5096 0.522049 -0.155508 -0.838619
-7.29349 -18.1836 37.5382 0.547556 0.310171 -0.77716
-7.18429 -19.5654 37.3722 0.755087 0.113912 -0.645653
-9.64178 -10.8081 37.7197 0.752903 0.549509 -0.362184
-9.93791 -10.4981 37.501 0.804797 0.531781 -0.263647
-10.7377 -9.44355 37.5571 0.742705 0.628907 -0.229925
-10.4847 -9.85403 37.2798 0.752332 0.606554 -0.257077
-8.66528 -9.57916 41.69 0.114734 0.648492 -0.752525
-8.28408 -10.2244 41.1622 0.244548 0.71785 -0.651834
-7.48373 -11.3538 40.5926 0.403337 0.453503 -0.794767
-7.33642 -12.0026 40.3107 0.338728 0.425188 -0.839332
-6.69501 -15.5454 38.7188 0.405721 0.226111 -0.885587
-6.91949 -16.456 38.3586 0.559238 0.206305 -0.802926
-6.83094 -13.2948 39.7706 0.31346 0.509391 -0.801414
-6.82789 -13.9593 39.3345 0.391802 0.518697 -0.759898
-12.6944 -9.32378 35.5489 0.145769 0.923794 -0.354056
-11.9419 -9.26636 36.1256 0.195987 0.937742 -0.286758
-13.2825 -21.4817 38.42 -0.591112 -0.706101 -0.389882
-12.4296 -22.4576 38.2266 -0.816934 -0.315961 -0.48248
-15.5011 -13.1396 49.9832 -0.935142 0.353846 0.0173916
-15.7798 -14.3232 50.9707 -0.980153 0.187883 0.0632469
-14.5645 -11.5013 45.7925 -0.843015 0.536049 -0.0444668
-15.2612 -12.7274 47.2261 -0.929701 0.364139 -0.0553066
-15.7849 -18.8315 44.1135 -0.999377 0.0237346 0.026117
-15.7629 -19.5151 43.4965 -0.995627 -0.0560854 -0.0747112
-14.4109 -11.2076 43.0485 -0.860693 0.500494 0.0933479
-13.8439 -10.4142 42.0417 -0.715381 0.69866 0.0101847
-16.0335 -15.9352 50.8511 -0.993012 0.114856 0.0271079
-16.1036 -16.2264 49.5988 -0.992691 0.116935 0.0298488
-15.61 -14.2021 46.9613 -0.975991 0.149974 -0.157955
-15.5383 -14.3861 45.5198 -0.944872 0.325527 0.0353391
-15.036 -12.6177 43.0406 -0.94349 0.327746 0.0490731
-15.3073 -13.2628 42.343 -0.937087 0.342959 0.0651725
-16.2189 -18.519 50.5988 -0.999646 -0.0103933 -0.0244859
-16.2127 -18.8919 49.364 -0.999734 0.0191036 0.0129052
-16.0257 -16.7833 46.9225 -0.992343 0.0274207 -0.120434
-15.8816 -17.2815 45.7457 -0.990302 0.0126408 -0.138358
-15.7358 -16.7148 43.8533 -0.999211 0.0288004 0.027363
-15.6812 -15.3393 42.8743 -0.998296 0.0568525 -0.0131192
-16.1376 -21.1837 50.5796 -0.99276 -0.10937 -0.0496496
-16.0793 -21.5729 49.3202 -0.99795 -0.0639918 0.00131368
-16.0104 -19.7793 46.9278 -0.985511 -0.0550891 -0.160416
-15.8681 -20.3766 45.9568 -0.996507 0.00679858 -0.0832286
-15.8406 -23.8017 50.5132 -0.984145 -0.17378 -0.0354801
-15.6608 -24.2786 49.1295 -0.972794 -0.217144 -0.0807461
-15.5613 -22.3829 46.0632 -0.936815 -0.287281 -0.199617
-15.4313 -23.6796 46.9215 -0.944271 -0.197946 -0.263002
-15.2229 -26.3724 50.1436 -0.957696 -0.271861 -0.0943899
-14.891 -26.7923 48.6589 -0.930206 -0.329014 -0.162682
-14.9233 -25.35 46.6789 -0.912815 -0.293344 -0.284108
-14.5769 -25.6058 45.7599 -0.934999 -0.262885 -0.238052
-14.2734 -28.9311 49.1405 -0.945192 -0.289851 -0.150326
-13.8588 -29.3153 47.7031 -0.90885 -0.330917 -0.25394
-10.1511 -33.1069 44.2954 -0.631225 -0.446538 -0.634161
-10.8495 -31.9001 43.8764 -0.454297 -0.623506 -0.636282
-12.1934 -31.2694 45.2935 -0.861934 -0.363559 -0.353403
-12.8347 -29.4166 44.8417 -0.850422 -0.408629 -0.331369
-10.4452 -28.5155 40.7533 -0.334185 -0.551432 -0.764358
-10.9776 -29.6433 41.9352 -0.455182 -0.573279 -0.681293
-12.9141 -23.3391 39.747 -0.819703 -0.361458 -0.444336
-12.3893 -24.9122 39.8846 -0.852287 -0.285678 -0.438171
-13.7658 -27.7145 45.4232 -0.908985 -0.320376 -0.266656
-14.1301 -27.4324 46.3025 -0.904574 -0.323891 -0.277202
-15.3108 -21.1269 43.406 -0.880645 -0.425545 -0.20827
-15.0261 -22.4496 44.1295 -0.916093 -0.276895 -0.290005
-14.0649 -24.1288 42.8841 -0.873931 -0.326471 -0.360085
-13.7279 -26.0147 43.696 -0.887277 -0.296074 -0.353666
-15.2399 -20.5508 41.9699 -0.879923 -0.421503 -0.21925
-14.8232 -20.924 41.1571 -0.852464 -0.43837 -0.284845
-15.7396 -17.9202 41.2426 -0.994263 -0.106638 -0.00832201
-15.692 -18.939 42.0603 -0.996196 -0.0548737 -0.0676971
-15.6467 -14.9265 40.6017 -0.99598 0.0866915 -0.0225305
-15.7368 -16.147 41.5494 -0.997513 0.0642066 0.0290586
-14.9674 -11.9655 39.556 -0.955501 0.289604 0.0560993
-15.2628 -12.995 40.7341 -0.947627 0.319218 -0.0101605
-13.6268 -9.69851 38.9008 -0.76392 0.617766 0.186524
-14.1489 -10.5623 39.9864 -0.711751 0.692307 0.11884
-14.0834 -22.6592 41.3647 -0.89549 -0.372893 -0.242998
-13.758 -22.5679 40.5496 -0.747377 -0.414579 -0.519184
-15.6768 -17.8354 38.323 -0.987028 -0.160354 -0.00790112
-15.5141 -18.4762 37.61 -0.968276 -0.235431 -0.0837508
-14.2741 -20.2084 36.7418 -0.748293 -0.630085 -0.207485
-15.0827 -19.5806 38.1272 -0.8283 -0.55122 -0.10038
-13.948 -9.90822 35.7291 -0.764241 0.632351 -0.12676
-14.463 -10.3648 36.3883 -0.750272 0.635715 -0.181546
-11.6269 -21.5788 35.7918 -0.199261 -0.950924 -0.236725
-11.1186 -21.5205 34.7167 -0.244389 -0.96695 -0.0726734
-15.7516 -15.1676 37.97 -0.993066 0.0751079 0.0904392
-15.7885 -16.2753 37.6086 -0.99948 -0.0187828 -0.0262263
-15.546 -13.2846 36.914 -0.977552 0.207459 0.0367914
-15.2662 -12.0501 36.9712 -0.971429 0.229293 0.0612353
-11.2602 -25.8799 39.2889 -0.328295 -0.512708 -0.793318
-10.6104 -24.674 38.1938 -0.368388 -0.522201 -0.769153
-11.2551 -22.8248 37.2691 -0.379057 -0.49933 -0.779092
-10.5934 -22.2779 36.459 -0.453003 -0.619845 -0.640765
-11.7112 -9.06444 40.4926 -0.38671 0.919169 -0.0747232
-12.3938 -9.07676 38.8156 0.0846356 0.957791 0.274726
-15.1024 -11.8588 37.8091 -0.938203 0.275106 0.20998
-15.2905 -12.8722 38.6636 -0.956851 0.286537 0.0482961
-15.6599 -14.9465 38.8817 -0.994689 0.0711929 0.0743322
-15.7207 -15.9713 39.6417 -0.995931 0.0891545 -0.013184
-15.7007 -17.7525 39.4445 -0.986986 -0.160443 -0.0108124
-15.6296 -18.4809 40.0977 -0.990248 -0.119185 -0.0721426
-15.1743 -19.6682 39.4935 -0.827437 -0.555834 -0.0799754
-14.8299 -20.3545 39.9796 -0.866616 -0.476719 -0.14736
-13.7688 -9.44794 36.9953 -0.742478 0.666653 -0.0655747
-14.2572 -10.0884 37.6158 -0.763149 0.617978 0.18896
-12.4484 -8.84536 37.3261 0.18857 0.954988 -0.228997
-11.7988 -9.03776 37.0584 0.188457 0.955049 -0.228837
-12.2836 -27.3128 41.6251 -0.868654 -0.346478 -0.354109
-12.7969 -27.7168 43.1144 -0.834794 -0.355404 -0.420484
-10.1734 -11.1074 35.8855 0.797812 0.51213 -0.318148
-12.0738 -13.4589 26.2203 0.121077 0.959616 -0.253925
-15.5613 -17.4388 25.7691 -0.998674 -0.0201738 0.0473551
-10.8913 -18.3696 16.9042 0.851859 0.501989 -0.149477
-11.2253 -18.0861 15.7905 0.870973 0.475604 -0.123313
-10.88 -21.291 16.7141 0.859958 -0.483236 0.164181
-11.1622 -22.0183 15.6213 0.784763 -0.604218 0.138088
-12.1968 -15.8447 19.4142 0.640919 0.713392 -0.283363
-11.6419 -15.6861 21.2869 0.716614 0.655946 -0.237065
-11.0527 -17.0908 19.6573 0.84661 0.493556 -0.199132
-10.6645 -17.0559 21.5167 0.870201 0.459503 -0.177783
-12.4502 -16.7391 15.4715 0.679408 0.722675 -0.127064
-11.9416 -16.9659 16.6709 0.641795 0.750594 -0.157186
-11.9958 -21.807 20.9741 0.586896 -0.806761 0.0684856
-11.6184 -21.7397 19.1919 0.516482 -0.84938 0.10863
-12.4321 -22.6885 16.2196 0.498038 -0.84944 0.174385
-11.9858 -22.6764 15.3783 0.37463 -0.889107 0.262947
-10.7406 -20.6035 19.5094 0.887575 -0.460183 0.0210254
-10.7522 -20.6524 21.2485 0.937255 -0.347136 -0.0323889
-10.4059 -19.0294 21.4827 0.996688 0.0176655 -0.0793834
-10.524 -18.7015 19.7353 0.998288 -0.0242642 -0.0532196
-10.6539 -20.2119 16.8766 0.999528 -0.0295539 0.00835184
-10.6329 -19.8451 15.9048 0.999413 -0.032406 0.0111177
-11.6093 -14.3324 24.6738 0.711202 0.638054 -0.295092
-11.0168 -14.3199 26.4291 0.836441 0.502953 -0.217725
-10.9052 -13.1019 29.7284 0.837373 0.504356 -0.210788
-10.405 -13.2036 31.5016 0.843468 0.495862 -0.2066
-10.0439 -12.1692 34.5996 0.826624 0.464507 -0.317689
-9.29104 -12.5019 36.205 0.859221 0.417863 -0.295178
-8.40636 -14.1932 36.0497 0.783163 0.531878 -0.322122
-9.119 -13.7503 34.8655 0.842819 0.451164 -0.29344
-9.53886 -14.6359 31.6822 0.862354 0.468369 -0.192289
-10.0719 -14.4218 29.9237 0.840685 0.500411 -0.206974
-10.2164 -15.6388 26.6229 0.837103 0.49455 -0.233835
-10.6611 -15.6386 24.9015 0.867363 0.452504 -0.207178
-11.3858 -12.0567 31.2889 0.553919 0.796552 -0.242237
-11.9619 -12.4012 29.5361 0.136465 0.925246 -0.353972
-10.0103 -20.8539 33.0128 0.767844 -0.596242 -0.234329
-9.72746 -19.9764 32.3863 0.820391 -0.386624 -0.421285
-10.9415 -20.7878 29.8058 0.856287 -0.493746 -0.151617
-10.6746 -20.227 28.4909 0.740954 -0.671553 -0.00206226
-11.633 -21.2153 25.4934 0.745004 -0.666134 -0.0351364
-11.1722 -20.853 24.315 0.581603 -0.805831 0.111236
-8.55747 -18.5756 33.8607 0.901675 -0.110367 -0.418092
-8.75609 -17.9514 33.2614 0.902092 -0.116817 -0.415432
-9.65922 -18.7914 30.472 0.956645 -0.266504 -0.117497
-9.71643 -18.531 29.0427 0.934751 -0.347077 -0.0760113
-10.271 -19.6042 25.8832 0.930649 -0.365907 -0.00219055
-10.2285 -19.4709 24.5988 0.936575 -0.35026 -0.0120742
-8.1452 -16.5242 34.9399 0.878878 0.234392 -0.415493
-8.58748 -15.6998 34.2622 0.929278 0.110546 -0.352451
-9.25558 -16.8665 31.1543 0.989503 0.0345454 -0.140323
-9.49432 -16.2455 29.7585 0.986132 0.0605231 -0.154535
-9.91271 -17.7766 26.3625 0.988554 0.0562462 -0.139991
-10.1017 -17.384 24.9854 0.993398 0.0202129 -0.112926
-11.4112 -10.9147 33.6926 0.520525 0.659668 -0.542118
-10.8103 -10.6034 35.1448 0.781753 0.532349 -0.324757
-13.0687 -15.0455 21.0148 -0.200462 0.933487 -0.297351
-13.6554 -15.7188 19.0993 -0.0843718 0.958019 -0.27401
-13.292 -16.2912 16.2993 -0.140078 0.984873 -0.101993
-13.7686 -16.4701 15.0742 -0.10657 0.990337 -0.0887456
-14.4546 -15.6634 20.6944 -0.695282 0.693195 -0.189904
-14.8034 -16.5979 18.7782 -0.747914 0.634326 -0.195589
-14.4807 -16.8323 15.9581 -0.7765 0.628425 -0.0461527
-14.8054 -17.3901 14.7828 -0.81978 0.567344 -0.077982
-15.3234 -17.1045 20.6229 -0.962519 0.257724 -0.0844764
-15.4659 -18.3005 18.8056 -0.96875 0.232498 -0.0864202
-15.2706 -18.3517 15.7855 -0.972034 0.232668 -0.0318646
-15.5094 -19.2815 14.692 -0.95614 0.292904 -0.0017846
-15.4402 -19.0799 20.6766 -0.946897 -0.313635 0.0708482
-15.3063 -20.2484 18.7175 -0.984129 -0.155781 0.0849836
-15.5708 -20.3987 15.753 -0.981028 -0.156673 0.114181
-15.6019 -21.3124 14.7042 -0.987225 -0.0709167 0.142683
-14.705 -20.8552 20.675 -0.755319 -0.625683 0.194975
-14.4827 -21.7305 18.7915 -0.770704 -0.60538 0.198824
-15.1152 -22.0373 15.7852 -0.759821 -0.592437 0.267751
-14.9602 -22.6865 14.8112 -0.76734 -0.580759 0.27186
-13.5243 -21.9332 20.8114 -0.424883 -0.878392 0.218866
-13.2171 -22.4122 18.9161 -0.184189 -0.971501 0.149199
-14.0204 -22.8586 15.9223 -0.196146 -0.940301 0.278137
-13.6129 -23.2022 15.0079 -0.175627 -0.947651 0.26667
-13.4393 -14.0274 24.3665 -0.19717 0.929075 -0.31296
-12.9121 -13.4434 26.0846 0.00846928 0.966087 -0.258078
-13.313 -12.3143 29.3935 0.0271479 0.925734 -0.377199
-12.7049 -11.6811 31.1362 0.133501 0.925712 -0.353884
-13.0152 -10.4861 33.551 0.121335 0.818217 -0.56196
-12.2976 -10.0643 34.3546 0.149919 0.822956 -0.547967
-14.3139 -19.7768 34.5691 -0.697859 -0.713734 -0.0598028
-13.6164 -20.3666 32.8454 -0.73167 -0.68136 -0.0201957
-14.0641 -10.5774 34.528 -0.762356 0.560973 -0.32268
-14.5568 -11.7048 33.7695 -0.769786 0.546953 -0.329045
-14.1161 -12.2467 31.0498 -0.802371 0.567075 -0.186081
-14.6016 -13.43 29.2144 -0.744289 0.643651 -0.178177
-14.3257 -14.0816 25.84 -0.740655 0.643689 -0.1926
-14.7544 -15.0443 24.0833 -0.696309 0.693156 -0.186249
-15.2964 -12.8914 35.1179 -0.977486 0.137295 -0.160221
-15.362 -14.2008 34.1216 -0.972402 0.188091 -0.138046
-15.1079 -14.1974 30.9378 -0.981294 0.189757 -0.0324592
-15.3118 -15.3877 29.1387 -0.970651 0.239297 -0.0239346
-15.2342 -15.5829 25.6587 -0.970063 0.238258 -0.0470274
-15.4545 -16.7086 24.1144 -0.963233 0.265002 -0.0442291
-15.6485 -15.7017 35.5563 -0.995103 -0.0242199 -0.0958284
-15.5035 -16.7761 34.0895 -0.996476 0.00241341 -0.0838472
-15.421 -16.4654 30.8558 -0.999628 -0.0121449 0.0244055
-15.4502 -17.3908 29.0304 -0.999564 -0.0190547 0.0225758
-15.4808 -17.9904 35.4288 -0.969 -0.239663 -0.0600092
-15.0892 -18.6632 33.7733 -0.901723 -0.417281 -0.113016
-15.1412 -18.3743 30.6086 -0.892181 -0.448391 0.0543959
-14.9639 -19.0027 28.7431 -0.907981 -0.413791 0.0659411
-15.3373 -18.5149 25.5963 -0.914748 -0.403464 0.021278
-15.191 -19.106 24.0026 -0.947368 -0.313379 0.0654737
-14.2144 -19.8813 30.184 -0.714193 -0.69629 0.0714772
-13.9539 -20.493 28.3124 -0.810227 -0.570458 0.134572
-14.557 -20.2055 25.2778 -0.821713 -0.564695 0.0768595
-14.2049 -20.7862 23.9092 -0.756149 -0.653788 0.0282728
-12.222 -21.1393 33.3835 -0.245093 -0.966632 -0.074506
-11.6039 -21.3205 32.1142 -0.356491 -0.929901 0.0905419
-12.7377 -21.1596 29.7045 -0.350578 -0.929909 0.111191
-12.3582 -21.5043 28.0226 -0.351422 -0.929528 0.111714
-13.2223 -21.4186 25.262 -0.350596 -0.935477 0.0443222
-12.764 -21.6903 24.0477 -0.425345 -0.901362 0.0814193
-10.8974 -27.1681 7.01449 -0.123742 -0.693239 0.710005
-10.2415 -21.7174 9.15211 0.979309 0.152356 0.133197
-11.2692 -25.3415 9.06442 0.197292 -0.795375 0.573109
-12.9888 -25.9352 8.56367 -0.0751131 -0.860633 0.503656
-9.93193 -25.9208 7.14477 0.861056 -0.278744 0.425305
-12.4382 -27.851 6.70844 -0.324742 -0.597826 0.732902
-13.4484 -27.8959 6.41703 0.377148 -0.61371 0.693628
-15.9164 -25.5488 6.5669 -0.183568 -0.666778 0.722295
-15.0291 -26.8645 6.2341 -0.812405 -0.304216 0.497445
-14.7382 -27.2236 6.37388 -0.666453 -0.427776 0.610613
-15.0957 -24.8622 8.29697 -0.728704 -0.608748 0.313714
-16.1522 -25.1668 6.69618 -0.68756 -0.341759 0.640673
-10.3731 -25.7708 7.83327 0.614428 -0.459812 0.641133
-10.5446 -26.8432 7.15616 0.505877 -0.558829 0.657114
-11.1461 -26.5555 7.62854 0.14384 -0.69903 0.700476
-11.3325 -27.4082 6.91429 0.525309 -0.56762 0.633923
-11.6901 -27.5919 6.94737 0.261906 -0.637403 0.724654
-12.0083 -26.9475 7.49855 -0.0541006 -0.60572 0.793836
-12.8365 -27.1399 7.17437 -0.172847 -0.633436 0.754243
-13.1212 -27.893 6.43634 -0.30507 -0.636336 0.708526
-9.93339 -24.4627 7.82485 0.949342 -0.0875068 0.301816
-9.76701 -24.2773 7.22219 0.980822 -0.0143484 0.194375
-10.0953 -22.0852 7.92426 0.989897 0.141308 0.0116262
-9.91492 -22.9501 7.33602 0.974455 0.222334 0.031721
-10.5367 -21.1838 7.84193 0.766173 0.604161 -0.219017
-10.8863 -21.0303 7.16889 0.729946 0.625707 -0.27508
-12.2857 -19.7576 7.61703 0.519339 0.729077 -0.445796
-11.7993 -20.3628 7.03791 0.420438 0.820861 -0.386548
-10.2275 -22.7677 9.16653 0.937041 -0.0883329 0.337863
-10.412 -22.8779 9.8842 0.98377 0.00152224 0.179429
-10.849 -24.8816 9.12748 0.702383 -0.50335 0.503286
-10.7254 -23.9716 9.91453 0.681335 -0.541771 0.492206
-11.1917 -23.6384 11.2743 0.786921 -0.557244 0.265017
-10.9246 -22.9418 12.0721 0.757051 -0.61003 0.233961
-10.8895 -19.8647 11.9109 0.876854 0.457883 -0.146524
-11.2104 -19.5662 11.0716 0.857067 0.480741 -0.18527
-10.7494 -20.5832 9.71274 0.866182 0.495451 0.0652415
-11.0297 -20.2065 9.04661 0.774091 0.616687 -0.143112
-12.0119 -18.2203 11.6713 0.70602 0.657794 -0.26238
-12.4136 -18.1734 10.8201 0.664696 0.677222 -0.315515
-11.8924 -19.1426 9.55434 0.670275 0.717302 -0.190285
-12.2818 -19.0849 8.8551 0.531831 0.764478 -0.364321
-12.6331 -24.3111 11.6838 0.431485 -0.869997 0.23859
-12.0569 -24.3039 11.0625 0.251766 -0.894238 0.37007
-12.356 -25.2485 9.50055 0.186328 -0.809747 0.55641
-11.7738 -25.5498 8.90136 0.119994 -0.805833 0.579857
-10.5981 -21.8222 12.1425 0.998701 -0.0279981 0.0425767
-10.5517 -21.4251 11.3143 0.998709 -0.0279086 0.0424526
-12.0753 -23.2662 13.7472 0.342439 -0.870946 0.352405
-12.6262 -23.824 13.0101 0.384116 -0.833744 0.396643
-12.4999 -17.0645 13.681 0.682515 0.707716 -0.182515
-12.036 -17.6861 13.1201 0.707079 0.677451 -0.202729
-11.27 -18.4808 14.0302 0.870259 0.473344 -0.136364
-10.925 -19.3136 13.4207 0.876853 0.45788 -0.146545
-10.622 -20.3943 14.1816 0.99915 -0.0327625 0.0250263
-10.6329 -21.3425 13.5 0.999205 -0.0282601 0.0281375
-11.2399 -22.8499 13.3271 0.756528 -0.609997 0.235733
-10.9456 -22.1965 14.0727 0.756683 -0.609747 0.235879
-16.3392 -23.0593 7.34661 -0.951781 0.0304475 0.305263
-16.4545 -22.932 6.7596 -0.976399 0.172835 0.129511
-15.6148 -25.9985 6.32992 -0.514806 -0.563651 0.645966
-15.2433 -25.8296 6.83067 -0.600813 -0.534496 0.594423
-13.7363 -19.5391 7.52933 -0.0187158 0.848186 -0.529367
-13.3058 -19.8828 6.91474 -0.0691907 0.865364 -0.496344
-15.1377 -20.6566 6.82223 -0.577612 0.739365 -0.345982
-14.6015 -19.9116 7.47829 -0.595967 0.720804 -0.353928
-15.9759 -21.6249 7.37573 -0.898098 0.43903 -0.0259523
-15.8417 -21.4753 6.77807 -0.854464 0.501085 -0.137131
-14.3919 -18.1614 10.478 -0.662838 0.653169 -0.366082
-14.7451 -18.2726 11.0851 -0.778327 0.580223 -0.239892
-14.4698 -19.1777 8.66302 -0.58102 0.707518 -0.402286
-14.7869 -19.1916 9.21404 -0.684083 0.671604 -0.284567
-15.8647 -21.9265 9.32522 -0.984735 -0.0307822 0.171319
-15.9942 -22.6165 8.63756 -0.978896 0.0371598 0.200952
-14.3109 -24.3792 10.7079 -0.409912 -0.898248 0.158501
-13.733 -24.4326 11.501 -0.316934 -0.914926 0.249925
-14.3198 -25.4863 8.33398 -0.451635 -0.777748 0.437189
-13.8048 -25.2294 9.23853 -0.394834 -0.782892 0.480818
-15.5811 -23.9993 8.45389 -0.859246 -0.394182 0.326061
-15.5942 -23.4128 9.29881 -0.832295 -0.489403 0.260326
-15.6439 -20.7275 9.23062 -0.931955 0.36218 0.0168901
-15.4858 -20.4283 8.59508 -0.889905 0.440069 -0.120035
-13.2733 -17.458 11.3338 0.0769039 0.886816 -0.45568
-13.6405 -17.8184 10.5505 0.0975512 0.891113 -0.443172
-13.1702 -18.4762 9.33754 0.0980496 0.889258 -0.446774
-13.6045 -18.8052 8.71406 -0.0194451 0.853853 -0.520151
-15.3163 -19.4672 11.0399 -0.937806 0.318574 -0.13795
-15.5541 -20.346 10.4785 -0.930127 0.350408 -0.109897
-15.7337 -22.1793 10.6264 -0.999066 -0.0431386 0.00245733
-15.7763 -21.4793 11.1703 -0.99768 -0.0662312 -0.0157168
-15.4264 -23.1049 11.3272 -0.834625 -0.547722 0.0583197
-15.1574 -23.6484 10.6872 -0.864181 -0.492984 0.100786
-16.1246 -24.296 7.24133 -0.652748 -0.400485 0.643064
-16.4827 -24.1523 6.7953 -0.908571 -0.14737 0.390871
-14.2881 -23.8648 12.744 -0.319884 -0.898919 0.299363
-13.7175 -23.748 13.4295 -0.190317 -0.883449 0.428132
-15.1232 -23.1469 13.2114 -0.775831 -0.596171 0.206559
-15.416 -22.9182 12.5449 -0.834229 -0.538032 0.12076
-15.7396 -21.7329 13.0637 -0.996369 -0.0780033 0.0341073
-15.7926 -21.2197 12.3899 -0.997856 -0.0636372 0.0153067
-15.5936 -19.6819 12.9694 -0.954784 0.292237 -0.0546334
-15.3394 -19.0628 12.3112 -0.941709 0.321009 -0.100681
-14.4591 -17.4096 12.4435 -0.795365 0.581766 -0.170124
-14.79 -17.7007 13.031 -0.804501 0.572365 -0.158672
-13.7624 -16.7368 13.3113 -0.0555644 0.968621 -0.242252
-13.3355 -16.8833 12.7459 0.0253387 0.960124 -0.278425
-13.8364 -27.7636 6.50338 -0.242859 -0.580353 0.77731
-14.1765 -26.8129 7.00745 -0.373584 -0.500543 0.780956
-10.2603 -27.9917 0.194666 0.158235 0.0663576 -0.985169
-9.93778 -29.1975 0.301949 0.00319179 -0.210614 -0.977564
-9.47562 -28.1874 0.573611 0.728662 0.19116 -0.657654
-9.3042 -30.0345 3.77314 0.949817 -0.214708 0.227482
-10.5149 -28.442 0.276282 -0.41044 -0.319342 -0.854143
-11.1795 -29.1901 5.10119 0.360425 -0.641108 0.677551
-10.7276 -28.5778 0.378078 0.433745 -0.297762 -0.850413
-12.0705 -28.4968 -0.450494 -0.0439893 0.187661 -0.981248
-10.0357 -26.7385 0.217342 0.525515 0.0184571 -0.850584
-13.8706 -22.07 0.711254 0.0615435 0.944805 -0.321802
-14.7121 -23.898 -0.073836 -0.277702 0.153842 -0.948269
-13.6861 -25.546 -0.475777 -0.0861281 0.09636 -0.991613
-13.4901 -29.879 4.65713 -0.0732138 -0.630605 0.772643
-15.6765 -27.9547 4.61231 -0.624452 -0.466177 0.626688
-13.0911 -28.2577 -0.199201 0.110344 -0.114614 -0.987263
-15.0435 -25.7296 0.0349313 -0.362293 0.0148955 -0.931945
-17.5865 -25.9988 0.839504 -0.8701 0.109718 -0.480507
-9.68695 -23.5064 6.13852 0.965307 0.222241 0.13708
-9.76302 -23.0539 5.58308 0.952111 0.30473 0.0249861
-9.34574 -23.9512 3.23556 0.930207 0.367025 -0.00255747
-9.53532 -23.5054 2.91006 0.919925 0.389776 -0.0425692
-9.64515 -24.1232 1.17527 0.820156 0.400287 -0.408797
-9.96294 -23.7796 0.893489 0.801004 0.415785 -0.430715
-10.2207 -24.1849 0.380836 0.520637 0.297815 -0.800152
-10.6257 -23.9698 0.197267 0.521005 0.297573 -0.800002
-9.95518 -26.0943 0.29202 0.538367 0.0462291 -0.841442
-10.2229 -25.6565 0.138759 0.545686 0.0282375 -0.837514
-10.7492 -26.7394 -0.0338167 0.294475 -0.131327 -0.946593
-10.358 -27.1589 0.125303 0.221126 -0.12432 -0.967289
-9.63891 -30.4058 1.21837 0.361479 -0.838643 -0.407444
-9.86853 -30.6146 1.46835 0.316376 -0.864999 -0.389465
-9.9769 -30.7878 3.55592 0.0578384 -0.954604 0.29221
-10.2434 -30.7401 3.87292 0.221642 -0.946297 0.235363
-10.1876 -28.6208 5.6975 0.103422 -0.492702 0.86403
-10.4271 -28.1246 6.08742 0.437371 -0.503988 0.744783
-10.9626 -28.1335 0.162479 0.237061 -0.297763 -0.924737
-11.1094 -28.5387 0.053207 0.886174 0.164784 -0.43306
-10.916 -29.2975 0.320965 0.905364 -0.0710536 -0.41865
-11.0036 -29.7165 0.099098 0.942706 0.0397567 -0.331248
-10.954 -30.7992 0.950426 0.947716 -0.319099 -0.00306475
-11.0786 -31.2714 0.996726 0.974358 -0.220602 -0.0442966
-11.2627 -31.2141 3.0523 0.954347 -0.235125 0.184221
